x,y,z,nx,ny,nz
1.5167401772215934,27.303606233047006,2.7755575615628914e-14,0.0,0.0,-1.0
18.596937511922405,12.782177311080183,40.338049627456094,-0.4694294333457947,-0.7674573659896851,0.4366293251514435
39.10681347633405,55.37769501093351,20.779954449986327,0.3698440194129944,0.9052796363830566,0.20900766551494598
15.272047132992252,38.413834696205946,46.16023009572022,-0.7208479642868042,0.40196195244789124,0.564628005027771
12.154116889542157,37.38233869609066,36.71766391549484,0.8410550355911255,-0.34619149565696716,-0.41566553711891174
43.045222668389606,11.66382895469596,28.099855714303835,-0.5674777030944824,0.7689449787139893,-0.29443615674972534
37.94167142995228,12.608997535859217,37.13730785863988,-0.41046544909477234,0.8116282224655151,-0.4156654179096222
3.62825399997006,25.142420185322337,7.019184007441011,0.9773776531219482,0.19400690495967865,-0.08422714471817017
31.56415606070176,1.9222589950912772,2.7755575615628914e-14,0.0,0.0,-1.0
21.63945187133036,57.530214121239304,11.085322355214942,-0.2511637806892395,0.9573091268539429,0.14309418201446533
3.190130077671736,26.863444974527493,4.754229795778846,0.9901837706565857,0.11154273897409439,-0.08422749489545822
46.338216391916205,42.27695750089816,39.80212210064299,0.7326829433441162,0.52204430103302,0.43662962317466736
16.185979242149067,7.602976852730042,11.636574134571042,0.5056940913200378,0.8492248058319092,-0.15195614099502563
47.62875677306209,15.671847611100544,35.19743496956703,0.7230004072189331,-0.572547435760498,0.3866003155708313
43.80490960032257,48.41600129320661,33.92456521097362,0.5518236756324768,0.7576218247413635,0.3485681712627411
53.06817261040998,36.0206711263148,31.82262703026904,0.8962868452072144,0.2741715908050537,0.34856829047203064
37.86269569824147,54.568927522802724,25.466861690254902,0.2906562387943268,0.9158949851989746,0.2768670618534088
9.00053953659838,40.2463638806875,25.299731276515097,0.8597102761268616,-0.44131630659103394,-0.25717344880104065
19.194161643267876,49.2211495958094,36.69309039323677,-0.44072583317756653,0.8101238012313843,0.3866007328033447
56.998021017326074,24.893124888924167,18.654710476195458,0.9609630107879639,-0.1812901794910431,0.2090071439743042
50.19614960190228,50.837613065904456,7.815088011983256,0.7064613103866577,0.6991267800331116,0.1101551279425621
25.665363217311135,7.077606411243004,25.90616475857038,0.1938662976026535,0.9467194676399231,-0.2571733891963959
54.38711706716205,24.460725447984945,28.52272738619966,0.933569073677063,-0.17612183094024658,0.3121376037597656
33.06550289796591,59.25322417803238,4.047044050705537,0.14523673057556152,0.9864124059677124,0.07679078727960587
45.02591256997174,14.437838215357694,30.665345442665238,-0.6785499453544617,0.6546469926834106,-0.3331775367259979
39.4304657573859,28.79305435440259,50.26023090642426,-0.6463242769241333,0.06306344270706177,-0.7604524493217468
7.611039712212149,27.82524527518385,36.261592825144085,-0.9208428263664246,-0.050879742950201035,0.3866002857685089
5.109472899675444,16.7893955337153,16.923524081872326,-0.8829615116119385,-0.435227632522583,0.17594292759895325
2.9509965918452887,32.01097504454678,2.3518209947880835,0.9972189664840698,-0.05527821555733681,-0.04998593032360077
16.924439775804665,41.41297756242949,45.51336996943167,-0.6037049889564514,0.5627924203872681,0.5646281242370605
51.021446979542,42.68993365596483,19.178609731029322,-0.8194997310638428,-0.5286811590194702,-0.22117049992084503
35.783948029469514,13.601115958139754,40.631152121861255,-0.32357317209243774,0.7997791767120361,-0.5056220889091492
26.276207990359747,56.28492957907528,6.373429687688214,0.1734955757856369,-0.9812263250350952,-0.08422687649726868
45.26525870438777,39.479400753375195,38.85642724258349,-0.7464026212692261,-0.4815240204334259,-0.45936667919158936
14.72877657438113,30.014892703450403,44.17294788674993,0.8321857452392578,0.023640014231204987,-0.5539928078651428
20.20297829928,21.032421216461753,46.898707429842254,0.5778769850730896,0.4853629171848297,-0.6561105251312256
51.511476278992205,40.610527133789844,31.303908847890398,0.8521392941474915,0.42003390192985535,0.31213805079460144
8.8787558868492,42.778076112243106,19.83094281058713,0.8272913098335266,-0.51640385389328,-0.2211700677871704
5.1346348161368445,36.97302125779895,14.104882575572283,0.942263126373291,-0.29841145873069763,-0.1519564837217331
28.996006459971085,32.59480781762951,56.0,0.0,0.0,1.0
9.67618924735235,24.232028657504255,39.29690749480411,-0.8602914810180664,-0.26316025853157043,0.43662941455841064
32.62312876008638,9.748203663502622,34.25480039548058,-0.12310828268527985,0.9193305969238281,-0.37373197078704834
22.75107956872217,51.82839683148488,26.01552910950498,0.3246001601219177,-0.910217821598053,-0.2571735680103302
31.09225818893126,17.657569386975947,51.4787522600266,0.06169237568974495,-0.6442039012908936,0.7623617053031921
5.5879529950864155,28.87734228260052,31.162327256988824,-0.9485899209976196,-0.05241278186440468,0.3121379315853119
37.12515523949919,18.00120645914553,45.81608405675472,-0.4177757203578949,0.678364634513855,-0.6043879985809326
20.067885879716407,5.696297594458962,25.376582899165605,-0.3634122312068939,-0.8895370960235596,0.2768670320510864
22.1787010641857,47.653139405502785,42.20078690327108,-0.35635119676589966,0.8029479384422302,0.47779542207717896
18.094325737204816,6.7721653690722,13.00056582873032,0.4328595697879791,0.8885617256164551,-0.15195602178573608
42.34863792880173,56.72654480080744,3.134099047579407,0.4501274526119232,0.8896563649177551,0.0767904669046402
36.158326745186045,56.987343519304034,17.239511812192507,0.22129502892494202,0.9592041969299316,0.175942525267601
19.446960355126905,12.365499849714961,40.50267578009289,-0.4583827257156372,-0.7493973970413208,0.4777957797050476
25.823654516974745,15.541523150685912,44.55056917228503,0.23467683792114258,0.798760712146759,-0.5539929270744324
27.852779977293828,57.52118446326331,17.972401702421223,-0.09384303539991379,0.9799171686172485,0.17594259977340698
20.181479343751164,57.88823375010249,2.876504000712727,-0.3298094868659973,0.9409191608428955,0.07679084688425064
31.080579334390325,8.226465750473325,30.617667901025712,-0.04650525003671646,0.9417164325714111,-0.3331778049468994
6.507572891868218,30.2159517355566,25.22052324668265,0.9648839235305786,-0.053486794233322144,-0.25717344880104065
4.286723635119232,22.356911176692392,7.010050841578238,0.9577155113220215,0.27511221170425415,-0.08422721922397614
5.096427448256186,33.97404370328473,17.655449967821205,0.9730125069618225,-0.13627766072750092,-0.18621249496936798
28.484559738932624,6.672020421215313,25.661574012072766,0.03326801210641861,0.9657924175262451,-0.257173627614975
19.778480058923908,54.9061931754469,1.6442514191249762,0.33547696471214294,-0.940721333026886,-0.049985554069280624
56.23726188547274,27.21393764350398,23.40506698299972,0.9646993279457092,-0.10255470871925354,0.24256491661071777
28.38383357603008,46.317688461757406,46.649850920928465,-0.07553845643997192,0.7887850999832153,0.6100098490715027
49.46759748887641,46.67983573824809,25.936802976465973,0.735174298286438,0.6187596321105957,0.2768669128417969
31.06452916051326,7.328092556636234,35.7319364081409,0.013759307563304901,-0.9221445918083191,0.38660067319869995
9.272693622921278,44.42838388112399,28.26032512341659,-0.7988681197166443,0.533998429775238,0.2768670916557312
8.386248789916479,11.375852961230882,14.960843473695514,-0.7531476616859436,-0.6338869333267212,0.175943061709404
51.26210824448208,42.650247130359936,28.990078136779406,0.8155773878097534,0.4872404932975769,0.31213808059692383
2.127476758843783,21.349472567397413,10.329388529186623,-0.9504405856132507,-0.290738046169281,0.11015475541353226
27.99218819050312,53.00376044034832,33.9437798772627,-0.08935122936964035,0.9330149292945862,0.34856781363487244
4.292259545719077,43.170699768296394,2.7755575615628914e-14,0.0,0.0,-1.0
35.25986874204022,24.280516728495407,51.62085927416906,-0.36839258670806885,0.3554154336452484,-0.859049916267395
22.477307396896723,0.9464354623090496,0.17859609779721675,-0.22455234825611115,-0.9733209013938904,0.04714512825012207
6.117832910496664,38.13445584325417,17.426554614861345,0.9366596937179565,-0.2966368496417999,-0.1862127184867859
54.70818368290052,20.337578378050953,6.907480626920203,-0.9365149736404419,0.3403608202934265,-0.08422737568616867
12.963797172322476,42.033325509383104,39.51758836338767,-0.7479336261749268,0.49995046854019165,0.43662890791893005
42.3776846194492,16.65424660399515,38.89679331219386,-0.5853953957557678,0.6680527329444885,-0.45936673879623413
18.30564783414903,3.9926601433710993,15.032549746966772,-0.37229713797569275,-0.9112842082977295,0.1759430319070816
50.188993091946166,18.489865226831448,33.778855739563,0.8186131715774536,-0.4564787745475769,0.34856799244880676
8.43094574077949,13.79273879805491,5.621809815382955,0.8139692544937134,0.5747693777084351,-0.0842270627617836
12.881604665346554,43.36532540487967,30.507079208228205,0.7552483081817627,-0.5644401907920837,-0.3331774175167084
2.2822907204511798,30.890373371144726,18.864140862277292,-0.9775998592376709,0.024793628603219986,0.20900672674179077
37.20199584525896,26.431254206970557,54.423940643337,0.41476643085479736,-0.18927989900112152,0.8900235295295715
14.036448081721911,5.1599424428450105,7.487975378294495,-0.5186204314231873,-0.8478789329528809,0.11015517264604568
52.2714698092513,14.889251164609384,21.704167195681727,0.8130066394805908,-0.5434483885765076,0.20900729298591614
53.94018082359018,42.09477595031017,0.6556276926359903,-0.8816216588020325,-0.46930232644081116,-0.04998529329895973
19.606280708341146,52.36722510428806,29.67813505341843,-0.3853820860385895,0.8683611154556274,0.3121372163295746
26.023584465397047,32.617286401503826,53.11385092417916,0.27513331174850464,-0.205623060464859,-0.939159631729126
3.782871372447291,24.557283810755344,7.465584751507814,0.9773776531219482,0.19400690495967865,-0.08422714471817017
28.55748147073503,54.636392450316485,29.449213088124413,-0.01417483389377594,0.9499309659004211,0.312138170003891
16.118047569711713,29.437629735288873,50.039402428939816,-0.7097310423851013,-0.039215464144945145,0.7033804059028625
25.47083659749011,24.98477774029123,52.334606954007796,0.27922484278678894,0.3284032642841339,-0.9023218750953674
58.21354241591106,23.2078907235059,2.7755575615628914e-14,-0.0,0.0,-1.0
6.464506716447593,27.398997791751572,33.30332447428762,-0.9286603331565857,-0.1268465369939804,0.3485683500766754
18.377179507458873,48.499318055818215,29.926145859038947,0.46037518978118896,-0.8228287100791931,-0.33317795395851135
55.4510112032102,22.103572437590028,5.419494170124683,-0.9617111086845398,0.2608017027378082,-0.08422737568616867
14.46173819403492,21.233005857148836,40.00318171370278,0.7659121751785278,0.449845552444458,-0.4593663811683655
3.9044554473375754,30.245571767697637,25.743661208870986,-0.9605995416641235,0.024362076073884964,0.2768664062023163
23.946800737909196,46.58803570035081,39.70739343391463,0.29836034774780273,-0.8366380333900452,-0.45936688780784607
5.002675852331403,40.55619399324153,0.7074529420715217,0.9235703945159912,-0.3801567852497101,-0.04998543858528137
12.960870668573774,19.720888829349214,35.74108887977486,0.7842530608177185,0.460618257522583,-0.41566574573516846
14.755074212775291,53.044074296108654,18.3391292822724,-0.5349351763725281,0.8186331987380981,0.20900727808475494
39.67705136308063,22.3773276206508,51.387087061080884,0.5073374509811401,-0.40176287293434143,0.7623616456985474
8.157077080842841,14.385761043165088,7.021956537510464,0.8139692544937134,0.5747693777084351,-0.0842270627617836
56.13163699154931,28.906328019717712,9.742837436567768,-0.9929162263870239,0.013394060544669628,-0.11805891990661621
57.44626011912905,29.225701615846987,18.60693927802235,0.9775997400283813,-0.02479281648993492,0.20900721848011017
50.48499497476596,20.614178958884622,27.60900281182103,-0.8677266240119934,0.4004470705986023,-0.29443609714508057
42.52772919269123,53.893739826494446,20.56595835857501,0.44148972630500793,0.8725839853286743,0.2090071141719818
25.646119102786972,41.02121847316488,48.1301581333555,0.23710712790489197,-0.6648778915405273,-0.7083202600479126
55.90629888495024,31.436918087340953,11.31588859077453,-0.9905548691749573,-0.06973766535520554,-0.11805807054042816
21.69933915338528,49.90495812349842,30.61788222289346,0.3899085819721222,-0.8584659695625305,-0.3331778347492218
47.34058606189708,45.35555558397338,24.88574432042192,-0.7133086919784546,-0.6519604921340942,-0.2571735978126526
42.48297608774917,10.532253708329312,34.390825417317025,0.51270991563797,-0.7846202254295349,0.3485679626464844
28.720321846416233,5.428034824748718,20.724821660092616,0.03357397019863129,0.9746571183204651,-0.22117017209529877
46.175747547800675,10.72362877532277,17.27299998082401,-0.6475187540054321,0.7389481663703918,-0.1862124502658844
54.647151133450045,15.705336365441878,13.281703121229029,0.86440110206604,-0.48201122879981995,0.1430942565202713
13.598956082339795,13.514908719747677,34.549699257956476,-0.6555213332176208,-0.6487152576446533,0.3866010010242462
56.5098380832965,22.75513934880283,18.706682995651388,0.9432588815689087,-0.25802814960479736,0.20900751650333405
1.930671872366323,21.37603473380637,8.70141803755887,-0.9504405856132507,-0.290738046169281,0.11015475541353226
32.57390831814103,58.88094055134446,8.574732667478473,0.06518630683422089,0.9917743802070618,0.11015568673610687
17.022155765764513,3.893426701778907,10.702460524833207,-0.4468146562576294,-0.8831085562705994,0.14309430122375488
26.885132227667167,59.25886232311803,4.110459756673185,-0.09504778683185577,0.9925064444541931,0.07679137587547302
58.52792573834483,23.437556071373194,6.576466239791218,0.9797644019126892,-0.1848374903202057,0.07679105550050735
40.48184275109958,51.36025239605446,22.58739338849418,-0.4634389281272888,-0.8580840229988098,-0.22116997838020325
30.642043487095712,22.431885831136285,54.76941455029038,0.043462011963129044,-0.45383819937705994,0.8900235891342163
16.793518945550357,39.96926374127684,41.93718636463598,0.69107985496521,-0.5164833068847656,-0.5056220293045044
19.623762052701522,26.659532537320043,52.75113498345696,-0.5640154480934143,-0.17253075540065765,0.8075392842292786
22.821672722105188,21.64990794784553,49.29875271924541,0.4572475850582123,0.5377799868583679,-0.7083200812339783
22.404231025620252,41.430385727992814,45.98565471150162,0.4458164870738983,-0.6602744460105896,-0.6043883562088013
51.19436579128299,44.78803234711957,11.763836857989233,-0.8305515050888062,-0.5358110666275024,-0.15195626020431519
14.137613739903694,8.439368259086313,7.907354077721325,0.5776691436767578,0.8076884150505066,-0.1180584728717804
9.328220132813184,14.249314053805778,26.40016177626304,-0.7825797200202942,-0.5575964450836182,0.27686673402786255
49.432198413991514,23.8363661041042,40.168040453369045,0.8677600622177124,-0.23737521469593048,0.43662962317466736
32.972674542647304,4.445200966701453,26.989775038695154,0.09160354733467102,-0.9565320611000061,0.27686676383018494
8.038244849012681,16.689884492855064,27.411948413841824,-0.8249096870422363,-0.4928171634674072,0.2768668532371521
50.213209388132064,40.26424820131912,34.835369020840666,0.8272131085395813,0.4077482223510742,0.38660040497779846
56.57120243290281,19.96040265322316,13.630271946550868,0.9305275082588196,-0.3371093273162842,0.14309388399124146
43.44323425502852,12.3561693977278,29.140856253428705,-0.5674776434898376,0.768945038318634,-0.29443612694740295
46.71219379578949,38.9589258540296,42.5993713526463,0.7879478335380554,0.3883935809135437,0.47779563069343567
6.703668839998944,42.79487270310273,23.493314872026247,-0.847305417060852,0.4724782407283783,0.2425651252269745
9.675596832046036,47.09173937241357,7.879284788185625,0.7428807020187378,-0.658931314945221,-0.1180584654211998
2.846559387526466,35.456655886171184,18.89742498307451,-0.9609630107879639,0.1812901645898819,0.2090071141719818
41.792018825623636,27.026037195468852,51.4456550177264,0.6242175698280334,-0.17075443267822266,0.7623617053031921
34.38490761901156,59.01166354699948,4.65457395151698,0.14523689448833466,0.9864124059677124,0.07679088413715363
4.280702994092081,18.762633137454255,17.533966107762506,-0.9151196479797363,-0.36276718974113464,0.17594315111637115
9.679684759855324,17.128585261564137,23.34162633258797,0.8332711458206177,0.48940879106521606,-0.25717365741729736
19.05601355651231,34.804206128011316,51.793711226091595,-0.5887433886528015,0.2686745226383209,0.7623616456985474
2.7832745846147233,41.332780550121555,6.615533298550916,-0.9070598483085632,0.41393911838531494,0.07679108530282974
1.3678213899741776,32.71364098803086,12.902875044078396,-0.9841636419296265,0.10462352633476257,0.14309373497962952
50.42608006591034,15.444753619878929,28.550635086557364,0.7898300886154175,-0.5279568433761597,0.31213781237602234
31.68472617064825,25.698156850354028,55.902501540685385,0.12104412168264389,-0.2727424204349518,0.9544422030448914
12.611881136158736,17.648389621879005,32.165305322863794,0.7701988220214844,0.5438624620437622,-0.3331776261329651
54.54760308774323,38.22459257321784,25.181406619488826,0.9188781976699829,0.2810826599597931,0.2768670916557312
55.91874262519338,20.157115629094907,17.579704089957964,0.925536036491394,-0.33530136942863464,0.17594321072101593
0.5377535930045253,24.893577642859277,2.4334656700531174,-0.9896982312202454,-0.1351841688156128,0.04714445024728775
7.840076804367431,44.01973679067843,10.942471182882157,0.8423667550086975,-0.5258140563964844,-0.11805859953165054
47.25853622400386,9.562861093943289,5.657771725340508,-0.656703770160675,0.7494304180145264,-0.08422702550888062
1.2147547143480146,21.87441304540478,2.432046081281864,-0.9551968574523926,-0.292192280292511,0.0471448116004467
22.866667946126647,11.5662775503507,41.92877822178842,-0.3322346806526184,-0.8132229447364807,0.47779548168182373
21.265804385587924,17.48097120787892,48.579409839664756,-0.44420456886291504,-0.6098670959472656,0.6563112139701843
39.8632866296827,43.27805634565595,46.3352626386305,0.48592036962509155,0.667140543460846,0.5646280646324158
53.67979772016283,40.18649529846946,12.156405264958673,-0.9082769155502319,-0.38979780673980713,-0.1519564390182495
48.94959344729384,11.008054291464259,22.26672598929294,0.7096129655838013,-0.6615223288536072,0.24256478250026703
36.21517237693924,56.94721147466169,17.386805046239417,0.22129502892494202,0.9592041969299316,0.175942525267601
40.01404596099908,3.1353692018421677,13.229338035992694,0.3273804783821106,-0.933994710445404,0.14309419691562653
22.011306749024055,42.53115068164792,44.45770895168963,0.40649762749671936,-0.7265339493751526,-0.5539929270744324
2.2420862102639347,41.00232177837834,1.3246700000587428,-0.9391573071479797,0.34023645520210266,0.04714570194482803
24.39076866368975,5.237568870471781,17.05022488790161,0.19710561633110046,0.9625353813171387,-0.18621240556240082
25.874513450475558,7.828703214408546,28.474398188402493,0.19172073900699615,0.9362426996231079,-0.2944363057613373
14.416505766852614,22.17405783325864,40.74709992981394,0.7778835892677307,0.3731530010700226,-0.505622386932373
52.00257476748629,19.998737453670035,31.18137157451127,0.864292323589325,-0.39442214369773865,0.312137633562088
22.037951638959722,58.508229825332506,1.922446617081083,-0.2534931004047394,0.9661876559257507,0.047145310789346695
26.93651831524323,14.022849554361501,42.6964294703803,0.1730802357196808,0.8452155590057373,-0.5056222081184387
1.2706491845449037,35.35878207746446,9.271264021765088,-0.9766859412193298,0.18425630033016205,0.11015530675649643
56.90867409570461,30.128612683235552,0.3808415967254488,-0.9986473321914673,-0.014181658625602722,-0.05002444609999657
29.970887396498995,55.777971506091845,12.511401208229596,0.007369800005108118,-0.9883596897125244,-0.15195661783218384
4.026624354015012,21.366526793298686,20.805884861367925,-0.9351403713226318,-0.2860566973686218,0.2090073674917221
46.54619566466383,17.58899188107486,39.72353372141985,0.7052785158157349,-0.5585132241249084,0.4366293251514435
15.435495448210807,7.033578990815944,21.706005489474425,-0.5102718472480774,-0.8342292904853821,0.20900750160217285
45.711874242457455,23.762926515480153,41.10797437263681,-0.810864269733429,0.2946954071521759,-0.505622148513794
33.65267649523025,55.036465329414185,15.427930768629999,-0.15662528574466705,-0.9699451327323914,-0.18621203303337097
11.213741604643594,47.82748824172251,12.988207498280172,0.6819506883621216,-0.715438723564148,-0.151956245303154
56.92997217306968,35.41761495407062,18.397479798472226,0.9551258683204651,0.20988185703754425,0.2090076357126236
8.005828202965352,38.48683400578295,24.589186419390096,0.8936236500740051,-0.36782974004745483,-0.2571732699871063
57.33186044542165,33.85846774210501,2.7755575615628914e-14,0.0,0.0,-1.0
47.53840429857376,39.973229705921526,40.344103785453534,0.772314190864563,0.4613949954509735,0.43662968277931213
48.558586259221464,15.036705507510241,23.137162166563456,-0.7491687536239624,0.6104161739349365,-0.2571735978126526
54.02634601778031,26.731070921710575,20.922155499115934,-0.9706257581710815,0.09470628947019577,-0.22117044031620026
46.91839070815147,25.960205921049347,45.264048578049575,0.8110390305519104,-0.1530061662197113,0.564628005027771
27.420665853262058,28.40222971623608,53.67446559761339,0.21596264839172363,0.12684227526187897,-0.9681276679039001
27.043738530907156,34.79628144943134,52.7274609099384,0.21047671139240265,-0.376184344291687,-0.9023219347000122
9.79673240556957,11.140647339362431,19.704822337421007,-0.6950882077217102,-0.6878722906112671,0.20900745689868927
57.6844989341407,20.812291856781155,7.739516849583455,0.9344810247421265,-0.3385424315929413,0.1101553738117218
11.2193213124309,14.04017224182441,20.809245849298872,0.7467760443687439,0.6272233724594116,-0.2211705446243286
3.333895104824757,19.655190918178484,14.449721826710345,-0.9151196479797363,-0.36276718974113464,0.17594315111637115
21.366771165435182,43.27361758577402,42.991185844062635,0.4658670723438263,-0.689970850944519,-0.5539928674697876
29.323563790631628,49.17784396354837,42.2777248440472,-0.013107042759656906,0.8783735036849976,0.47779518365859985
28.152111991512236,58.703456195488116,2.7755575615628914e-14,0.0,0.0,-1.0
49.02791362257733,36.76734785280242,33.93356960255582,-0.8799786567687988,-0.2931928038597107,-0.37373197078704834
51.64650144301569,43.69143771701372,13.159275499735413,-0.8305519819259644,-0.5358104705810547,-0.15195585787296295
29.51202702212617,52.41700825495629,35.566373759540284,-0.01375930942595005,0.9221446514129639,0.38660040497779846
13.287295937339083,50.202815563400286,10.31279518829009,0.6225885152816772,-0.7735927700996399,-0.11805859953165054
30.231173274264854,21.67640392267179,54.4021696828438,0.006802328862249851,-0.4558637738227844,0.8900235891342163
58.050809110667146,20.715002517177865,3.296022686849502,0.9374265670776367,-0.33960938453674316,0.07679127901792526
57.62328532052221,34.24053410228264,2.7755575615628914e-14,0.0,0.0,-1.0
36.020963561122414,58.91971469751278,1.5078362670167915,0.22455160319805145,0.9733210802078247,0.04714510217308998
21.956322739925252,29.357377503532245,51.546856595522854,0.5116852521896362,0.014535529538989067,-0.8590500354766846
6.220599402006067,27.712716430418524,23.754473756959822,0.9602916240692139,0.10817497223615646,-0.2571735382080078
57.04704743611065,23.243207371301974,16.645599184182004,0.9495155215263367,-0.2597391903400421,0.1759427785873413
34.16344990640729,8.754560008982828,38.06395625587444,0.15754564106464386,-0.8857393264770508,0.43662941455841064
9.074183846819679,21.810422768365036,36.36913034121366,-0.8573406338691711,-0.339863657951355,0.3866002857685089
25.40875090323222,23.184454361339345,54.49548444752523,-0.23789441585540771,-0.38892704248428345,0.8900235891342163
49.72780661883856,32.21226245609389,41.02057972827724,0.870388925075531,0.11888757348060608,0.47779580950737
28.187020738462607,56.32912978281618,7.833562008387933,0.09046660363674164,-0.9888771176338196,-0.11805853992700577
2.947533318376548,31.279171724938653,3.092026402941423,0.9972189664840698,-0.0552792064845562,-0.049985338002443314
36.92286000767713,8.74601323037531,36.38772444505116,0.3050655126571655,-0.8703304529190063,0.3866004943847656
47.14283618608719,16.08470495524015,36.717612847067635,0.723000168800354,-0.5725476741790771,0.386600524187088
30.56234096225573,3.598208843027137,10.363066352014382,-0.048977818340063095,0.9917980432510376,-0.1180584728717804
27.974676537550533,5.130765897233186,29.609873644540905,-0.06230919063091278,-0.9479914307594299,0.31213757395744324
33.37375311712565,31.58049788152838,56.0,0.0,0.0,1.0
32.70352783244785,56.10817287734125,23.883555068834067,0.14131727814674377,0.9597871899604797,0.24256540834903717
8.94302982077085,10.068010308198335,11.935140730242793,-0.703471839427948,-0.6961691379547119,0.14309395849704742
39.346674814742535,36.49076669434343,52.00846660818,0.5270505547523499,0.3755292594432831,0.7623617649078369
9.028390416851952,25.526755903382234,38.615742688136486,-0.8786771893501282,-0.19308337569236755,0.43662941455841064
5.369900909368574,35.865067490117966,17.02389820039846,0.9581965208053589,-0.21721971035003662,-0.186212420463562
55.38043582665797,28.69357190466212,15.000996715129055,-0.9882973432540894,0.013332033529877663,-0.15195614099502563
31.404931521330646,11.039582366537719,43.127843875120156,0.0813988596200943,-0.8499776124954224,0.5204923152923584
14.721189834176666,33.48036231230877,47.96477357463897,-0.7643133997917175,0.2090768814086914,0.6100097298622131
43.282114221793414,28.979063094197294,46.37967210245932,-0.7929244041442871,0.07736701518297195,-0.6043882966041565
41.77521556202281,12.119229261849489,31.453263238223247,-0.49442800879478455,0.8028285503387451,-0.3331775665283203
43.675087722725486,31.06181548048089,45.818034495115285,-0.7947227954864502,-0.055951304733753204,-0.6043882369995117
31.451378290608677,3.6983461072525157,10.835482058624432,-0.048977892845869064,0.9917980432510376,-0.11805851012468338
21.06930223165193,54.96618683456545,23.071036998261512,-0.32090651988983154,0.9155225157737732,0.242564395070076
44.615429326052364,24.14948402451852,47.57730544523368,0.7450112104415894,-0.2699013650417328,0.610009491443634
40.00028950834764,2.3665501289053923,7.537416377544158,0.3287721872329712,-0.93796306848526,0.110154889523983
24.142966151634962,14.047761938073204,46.35208533386419,-0.2496509552001953,-0.7866825461387634,0.5646281838417053
18.88434619257347,50.30329754333461,25.5890218339538,0.471850723028183,-0.8433377742767334,-0.2571735978126526
19.506269514803694,55.60868009527994,17.98856409775305,-0.39932090044021606,0.8997704386711121,0.17594321072101593
50.13998435270828,15.6722666807264,29.659388404751578,0.789830207824707,-0.5279567241668701,0.3121376931667328
15.27089486222358,52.17150226881689,6.443975899923519,0.5575971603393555,-0.8258275985717773,-0.08422733843326569
16.69771213178209,5.618762860973462,19.0193885061061,-0.441489577293396,-0.8725841045379639,0.20900700986385345
3.4617328036170605,18.098805433857667,11.30731713633028,-0.8877232074737549,-0.43757474422454834,0.1430939882993698
29.26743169729454,56.78857795580889,21.689097266837326,-0.014591128565371037,0.9778051972389221,0.20900727808475494
53.13477771870416,36.31275929802694,21.83557039103922,-0.9477815628051758,-0.22976867854595184,-0.22117069363594055
2.0774992363466933,36.11610071271532,14.084501205132446,-0.9725534319877625,0.18347731232643127,0.14309412240982056
37.59217953476696,57.65964456533497,11.07580321349414,0.29936739802360535,0.9433467984199524,0.14309433102607727
3.5337361225487394,34.81932640872663,5.419789997950595,0.9717887043952942,-0.22030103206634521,-0.08422697335481644
23.982834114043936,7.203289705842188,25.0339586762047,0.2724058926105499,0.9271767735481262,-0.25717371702194214
16.77256775060579,25.133913784911847,49.88116277678944,-0.6607873439788818,-0.26194608211517334,0.7033806443214417
54.639606187400176,24.50811465996313,16.11806783276822,-0.9664523005485535,0.17690356075763702,-0.186212420463562
53.94613788998452,32.93693274796728,30.995441356980166,0.9412964582443237,0.12857341766357422,0.31213757395744324
15.658474930020512,55.65828283257073,5.597872933112917,-0.476471483707428,0.8758298754692078,0.07679124176502228
52.17023145330143,48.15995604121668,10.928304040650822,0.7572092413902283,0.6373054385185242,0.14309412240982056
35.239697839642105,54.72331298492413,27.332183873511315,0.21601493656635284,0.9363129138946533,0.27686765789985657
31.979310639619175,54.17559685765138,20.677427409867796,-0.0743597149848938,-0.9723962545394897,-0.22116997838020325
9.868199843400339,13.224215077075907,12.369484306394334,0.7568471431732178,0.6356821060180664,-0.15195609629154205
50.38162980327546,18.627697451620197,33.50695043324366,0.8186131715774536,-0.4564787745475769,0.34856799244880676
48.60669032956262,6.969500674666005,4.150486081898027,0.6107940077781677,-0.7880569696426392,0.07679124176502228
48.94293857143437,44.75109459034638,21.523385817226828,-0.7723864316940308,-0.595401406288147,-0.22117049992084503
21.92710333811927,4.096514355692319,3.162142961119764,0.2815340757369995,0.9582483768463135,-0.049985598772764206
37.65392530443747,33.51015436718972,51.0261607815381,-0.5373826622962952,-0.23062406480312347,-0.811191976070404
30.99609317768786,8.22230819450206,37.8222675924685,0.013598228804767132,-0.9112855792045593,0.4115503430366516
12.559747500721297,48.16720148014632,17.02797496547558,0.6778952479362488,-0.7111841440200806,-0.18621264398097992
14.252100966863253,55.11829763616491,2.4656368049520463,-0.5464086532592773,0.8361907005310059,0.04714536666870117
42.022914620053605,48.65511457498916,28.21974358529661,-0.5229118466377258,-0.7999191284179688,-0.29443612694740295
17.017901239516544,35.33838783399924,45.753979012574185,0.7367203235626221,-0.3032461404800415,-0.6043881177902222
55.87105777290347,23.24790458359177,4.16668685595167,-0.9617111086845398,0.2608017027378082,-0.08422737568616867
39.57211695835131,6.339044972087988,27.49610667045762,0.38979217410087585,-0.8782976269721985,0.27686694264411926
53.085719627963904,14.143258131902478,2.7755575615628914e-14,-0.0,0.0,-1.0
43.09703431228388,39.1357863921501,42.484412983872964,-0.7249817848205566,-0.4677049219608307,-0.5056218504905701
52.695890773223596,44.24316380806507,21.420971484068268,0.8395088315010071,0.5015385746955872,0.20900718867778778
57.52775105722243,25.420617901053348,16.396768829822772,0.9673366546630859,-0.1824932098388672,0.17594310641288757
49.19000899702422,24.684313597730092,41.02988626238779,0.8473400473594666,-0.23178932070732117,0.4777955710887909
55.08062737131742,37.78132861153725,8.419328339407965,-0.9420913457870483,-0.3138885498046875,-0.11805883049964905
39.6183707698273,23.808108068742193,48.58947857669851,-0.6139339804649353,0.3483785390853882,-0.7083202004432678
27.585617291491634,16.659188533820608,46.52705938433735,0.15139608085155487,0.7393227815628052,-0.6561105847358704
16.36418232537796,20.40933952851522,42.068821656427446,0.7047602534294128,0.4976540505886078,-0.5056217908859253
13.4186435451642,5.854850357189802,9.695114039722057,-0.5851649641990662,-0.8033976554870605,0.11015534400939941
48.271328830863624,7.642588872057666,11.34197964699453,0.6062988042831421,-0.7822568416595459,0.14309416711330414
55.31368175415464,25.751408251826284,26.200062732801513,0.9442518949508667,-0.17813774943351746,0.27686700224876404
37.454207912850265,50.90259765747719,28.2954685176398,-0.3075510859489441,-0.9048313498497009,-0.2944360673427582
23.749254834945486,38.10647693459965,49.74198831712203,0.36339157819747925,-0.5381994247436523,-0.7604524493217468
50.536098173815326,8.848734654931262,5.653174417965662,0.672226071357727,-0.7363526225090027,0.07679107785224915
27.784692644683087,51.82795417623035,36.75055777112547,-0.08791752904653549,0.9180471897125244,0.38660040497779846
31.414622358567172,18.955018928856415,49.08264329559856,-0.09369039535522461,0.6996461153030396,-0.708320140838623
10.692647861258164,51.75518729123641,9.225476941781805,-0.6701136827468872,0.7340391278266907,0.1101551428437233
56.08607465139663,29.876040700391542,10.236053454302725,-0.9929162859916687,0.013394412584602833,-0.1180587187409401
19.119777259157527,35.122703300690134,48.1302224205771,0.627984344959259,-0.3223637342453003,-0.7083200812339783
9.92471385510826,42.516886834297814,32.98439961142431,-0.7792273163795471,0.5208693146705627,0.3485683500766754
36.62765173703269,38.695487173974215,48.90346113834269,-0.434326708316803,-0.5564557909965515,-0.7083200216293335
54.42500559012434,18.92775898969539,3.551126004675706,-0.9068410992622375,0.41849809885025024,-0.049985479563474655
40.769269570609104,15.654486891550793,39.433110852386996,-0.5274410247802734,0.7146944403648376,-0.4593667685985565
56.2830891660597,34.141268830720975,22.376821536535545,0.9612099528312683,0.13129277527332306,0.2425646036863327
25.92846126997432,52.0001553272834,35.75306028931545,-0.16150376200675964,0.9079958200454712,0.38660067319869995
4.807920644516076,27.170568297015457,17.16221980164629,0.9763344526290894,0.10998183488845825,-0.18621230125427246
45.79833654516423,9.317166706515453,12.238772319226305,-0.5869045853614807,0.795268714427948,-0.15195618569850922
5.508663891610215,30.097215566145422,21.26174198699759,0.9748420119285583,0.027692018076777458,-0.22117015719413757
12.570072314824216,49.06315110613106,13.257428890434046,0.6819503307342529,-0.7154391407966614,-0.15195593237876892
46.979546060219796,50.69375239758035,21.518392932736745,0.6374834775924683,0.7415732145309448,0.209007129073143
44.551666507186106,29.759037810509323,44.729962650739715,-0.8324457406997681,0.01122928038239479,-0.5539928078651428
21.346240430105883,55.188539607581525,5.599139706019376,0.3347032964229584,-0.9385518431663513,-0.08422697335481644
42.043020871220705,8.966538233497706,31.451480906495686,0.4540061354637146,-0.8345350027084351,0.3121374547481537
30.856484320900037,8.13045431598784,30.3775740293228,-0.04650525003671646,0.9417164325714111,-0.3331778049468994
57.27412386376375,29.21724480197549,2.7755575615628914e-14,0.0,0.0,-1.0
38.549639944098054,55.38980702416652,1.4441497462368247,-0.3214143216609955,-0.9456184506416321,-0.0499856173992157
55.72260192115209,30.901875135006065,25.804460706807358,0.9594449400901794,0.05301302671432495,0.27686646580696106
3.2445839143286173,26.810223162148546,5.323910784028802,0.9901837706565857,0.11154273897409439,-0.08422749489545822
48.42296053898698,25.519553876174584,37.04214468571588,-0.8778123259544373,0.23804962635040283,-0.41566556692123413
1.746982771323092,21.705414128729895,7.985856913142372,-0.9504405856132507,-0.290738046169281,0.11015475541353226
49.27155070845916,8.280586851487818,9.877785876075372,0.6701136827468872,-0.7340391278266907,0.1101551428437233
24.88964664940424,44.00525801139582,44.293842306448596,0.279642790555954,-0.7841503024101257,-0.5539929866790771
23.20145089468915,37.501585560266065,49.852571084620045,0.4071524441242218,-0.5059040188789368,-0.7604525089263916
34.43911863397691,10.888232470116428,42.020610605334134,0.22293458878993988,-0.8497126698493958,0.4777955114841461
22.232502708991987,51.21826387586772,27.344269109314858,0.3210080564022064,-0.9001451134681702,-0.2944360673427582
47.60507367332796,49.17943854408732,10.060043673686419,-0.674344003200531,-0.7289186120033264,-0.11805862933397293
24.218754500193093,53.43176186630793,21.49943340227606,0.24956625699996948,-0.9427621960639954,-0.22117000818252563
10.728684191340605,15.089743327598624,22.12912830702419,0.7467768788337708,0.6272225379943848,-0.22116993367671967
2.9328560578962257,18.627923292821734,8.878208459168698,-0.9239641427993774,-0.3662731647491455,0.11015535891056061
49.90688563814725,47.22406675037735,7.70503617647762,-0.732973575592041,-0.6699342727661133,-0.1180584579706192
14.160548667439624,28.626901605982777,47.73645708108861,-0.7911871671676636,-0.04371507465839386,0.6100097298622131
37.93659648584577,21.955049719262973,48.77192334122825,-0.5080080032348633,0.4901126027107239,-0.7083202004432678
47.12879516159407,46.51563997232939,31.82323421998648,0.6662083268165588,0.6592926979064941,0.348567932844162
29.030333180323833,4.317763522125171,15.239911496577545,0.03402598574757576,0.9878013730049133,-0.15195617079734802
32.937262755943664,44.770936136813134,48.31465559799383,0.16961131989955902,0.7351790070533752,0.6563107967376709
4.165450272969409,21.36469221411736,1.4328918619716857,0.9599294066429138,0.27574801445007324,-0.04998568072915077
29.979089760981992,17.0999361926506,47.25355504953034,-0.03722238168120384,0.7537462711334229,-0.6561105251312256
11.979019500282513,14.506673702198464,33.18119881738237,-0.7170992493629456,-0.6035468578338623,0.3485683500766754
6.140508898118457,12.278203596642985,5.345768121277117,-0.8120118975639343,-0.5785670280456543,0.07679102569818497
12.085394406164154,48.227904002270364,15.01479177012191,0.6819506883621216,-0.715438723564148,-0.151956245303154
38.91159945076657,4.641019466991032,22.442225586497905,0.32090580463409424,-0.9155226945877075,0.24256481230258942
32.966001631957624,52.14535333098452,27.890219675541672,-0.15234757959842682,-0.9434499144554138,-0.29443591833114624
51.77209458488546,31.523604173204934,29.582284881229345,-0.9405360221862793,-0.06621681898832321,-0.3331776559352875
53.97815876048558,41.0688042461097,6.927987840230285,-0.9156832695007324,-0.39297568798065186,-0.08422746509313583
35.63053759895135,13.442122652834541,40.45890274143914,-0.26306354999542236,0.8483983874320984,-0.45936667919158936
30.422819129457167,56.751418338512785,21.910729522402768,-0.014474200084805489,0.970026969909668,0.2425658255815506
20.506419901482776,15.539956855799868,41.02040896560238,0.44141629338264465,0.7412813901901245,-0.5056219696998596
42.57088234719389,31.602652904525893,50.89977691121018,0.7042736411094666,0.0961972251534462,0.7033808827400208
54.4308486720493,23.862444018595813,16.419245390163347,-0.9482596516609192,0.2571546733379364,-0.186212420463562
4.992358497545372,16.57291472427126,15.80028517497588,-0.8829615116119385,-0.435227632522583,0.17594292759895325
11.622403954091979,8.058205656371475,14.458734949753708,-0.6417118906974792,-0.7464916706085205,0.17594321072101593
28.86606060848386,5.192240180658987,29.97451575487829,-0.06230919063091278,-0.9479914307594299,0.31213757395744324
36.97175061833258,45.84151274093303,40.15167848142104,-0.35522228479385376,-0.8141248822212219,-0.4593667685985565
5.592219803717057,35.34425499058126,29.39105919935572,-0.9335688352584839,0.17612281441688538,0.3121377229690552
58.4373557207227,27.25385656326747,12.141790073725579,0.9841635823249817,-0.10462403297424316,0.1430940330028534
35.65855185901814,37.255928204839634,53.63682239568005,0.30969521403312683,0.4251931607723236,0.850470244884491
13.154765004124021,21.286400551509214,37.787956256916694,0.8200461864471436,0.39337795972824097,-0.41566574573516846
13.583311487377918,5.430382789096856,7.436182231665454,-0.5186206698417664,-0.8478787541389465,0.11015534400939941
41.178405698835824,17.863518132404756,46.728495396652846,0.5342453718185425,-0.5852096080780029,0.6100095510482788
4.859485423726217,41.96095217268946,17.9665733795587,-0.8955546021461487,0.40868818759918213,0.17594295740127563
33.48118191590868,55.11051721952452,27.087429574717202,0.13997332751750946,0.9506585597991943,0.27686768770217896
17.655634031948324,52.817364261665276,12.123077608991604,0.48260343074798584,-0.8625562787055969,-0.1519559919834137
20.667558126579593,19.321597246183476,49.807766537133695,-0.46336543560028076,-0.5390251874923706,0.7033806443214417
18.591187175101844,52.004171550046024,18.878223721639692,0.4797333776950836,-0.8574268817901611,-0.186212420463562
6.937914752209214,15.504148176356574,21.512152432192067,-0.8395090699195862,-0.5015379190444946,0.20900768041610718
56.44213430634384,28.3053950831411,6.790900015054682,-0.991736888885498,0.09676630795001984,-0.0842270776629448
5.745513758163553,33.585991838540444,20.959557144436474,0.9658085107803345,-0.13526925444602966,-0.22116991877555847
36.677099966014005,51.611331262107676,34.98765136935153,0.2789623737335205,0.8790448307991028,0.3866007924079895
54.37170287099773,14.211341171568632,9.3391942503241,0.8263087868690491,-0.5523402094841003,0.11015503853559494
10.652422397314565,31.14191128726834,42.539768956950674,-0.8735486268997192,0.09286525845527649,0.4777958393096924
39.96756466091807,51.01285191529786,24.623043339461006,-0.3864629566669464,-0.8857246041297913,-0.257173627614975
4.62415683315233,36.51866278025456,11.753878480910599,0.9639288187026978,-0.21851873397827148,-0.1519564688205719
22.43493767872267,1.443894017583998,7.167777209995043,-0.2234342247247696,-0.9684745669364929,0.11015503853559494
15.518951804152191,28.95909971886424,49.369330124275294,-0.7533411979675293,-0.04162383824586868,0.6563112735748291
12.05972737245678,13.498674672002156,22.0868176003295,0.6916723847389221,0.6875120997428894,-0.22117052972316742
2.918663812473031,29.519989743721048,3.3336767359334223,0.9983472228050232,0.02835932932794094,-0.04998570308089256
33.30156847628412,3.0962806741319664,2.364493833729597,-0.13255980610847473,0.989913821220398,-0.04998554289340973
23.254972129344043,54.648258754848484,14.277163507921442,0.25293248891830444,-0.9554761648178101,-0.1519555300474167
4.681228998142141,37.75099769718537,9.266435228750808,0.9466668367385864,-0.2998068332672119,-0.11805818974971771
25.992326803032622,59.0645205824469,5.517201857837678,-0.09504778683185577,0.9925064444541931,0.07679137587547302
56.87012702367381,17.656933347033757,3.093480734653945,0.9070597290992737,-0.4139392673969269,0.07679133117198944
54.8730227776116,41.93572133796726,17.633027512774586,0.8829613327980042,0.43522801995277405,0.17594271898269653
23.71539450125614,54.61878572836135,15.228868671452366,0.25293248891830444,-0.9554761648178101,-0.1519555300474167
24.038991243037927,3.687717065956082,22.440088672743666,-0.21808898448944092,-0.9453038573265076,0.2425650954246521
56.31854380908559,42.55844055646067,6.570440877573821,0.8943053483963013,0.4408186078071594,0.07679121196269989
51.74989985122978,21.966133207748307,25.303176749012017,-0.9082427024841309,0.33008643984794617,-0.25717344880104065
4.945549105759865,21.56015195175176,24.679206866717628,-0.9277015328407288,-0.2837817072868347,0.24256499111652374
31.867255698528414,12.26707360646812,45.01656669263629,0.07868000119924545,-0.8215866088867188,0.5646280646324158
27.572985318426685,8.580004517704513,38.385602453907495,-0.059004057198762894,-0.8977043032646179,0.43662965297698975
8.21742588076212,26.15284550884034,29.835983250150644,0.924820601940155,0.18357470631599426,-0.33317747712135315
16.579662864778488,10.792716681692676,34.0830925167823,-0.5518233776092529,-0.7576220631599426,0.3485681712627411
8.675657866713225,50.72137188758745,1.8585736250576461,-0.730644166469574,0.6811287999153137,0.04714531451463699
57.13093118725469,38.59746715142724,12.476056397594741,0.946419358253479,0.28950732946395874,0.14309388399124146
28.79829568982564,9.185583669970397,33.279374676598394,0.03193110600113869,0.9269869327545166,-0.37373197078704834
29.668958300542982,53.20032055524875,33.6033173061036,-0.01398363709449768,0.9371790289878845,0.3485684096813202
6.681248886668267,41.33386997719458,13.144324512732998,0.8793017268180847,-0.45137330889701843,-0.1519560068845749
17.464186895051192,33.38267401330719,47.09351896680442,0.7194477915763855,-0.2278461903333664,-0.6561105251312256
25.80795768569081,56.706718470968866,20.744229420547835,-0.17125211656093597,0.962802529335022,0.2090071588754654
18.19751422128197,12.91098998056683,33.62372225152805,0.5395825505256653,0.7544368505477905,-0.3737321197986603
45.544167493580794,16.438754058277194,33.348486538870986,-0.7190669775009155,0.5858900547027588,-0.3737318813800812
31.309952214910712,32.83328400571038,56.0,0.0,0.0,1.0
27.011337833902783,18.095389318034588,48.012892575642475,0.15139645338058472,0.7393227815628052,-0.656110405921936
10.918661799881392,11.894717943964853,25.290937775220502,-0.6830006837844849,-0.6759102940559387,0.2768671214580536
51.16147177369661,19.813947604062182,33.07919644144825,0.8526899814605713,-0.3891274034976959,0.34856805205345154
23.402866849689445,21.65253132580755,52.96523881185333,-0.3472515940666199,-0.4767563045024872,0.8075393438339233
22.21666483172378,50.770646831473826,28.69544994467131,0.321007639169693,-0.9001453518867493,-0.2944358289241791
37.963304498378264,57.525172785179535,11.185877137888061,0.29936739802360535,0.9433467984199524,0.14309433102607727
38.07596447911107,50.60134079027733,28.521114918558187,-0.3821869194507599,-0.875922679901123,-0.29443609714508057
51.43638621608746,14.89788259274288,10.139375792621674,-0.8196091055870056,0.5606274008750916,-0.11805849522352219
34.88301250337088,22.54801847312738,50.86752534335153,-0.34724244475364685,0.4705212116241455,-0.8111920356750488
34.302703545885954,1.449913426257122,12.092432068555297,0.17331837117671967,-0.9744151830673218,0.14309383928775787
29.474432726604427,55.32985348963925,15.3833812104818,0.0073241363279521465,-0.9824823141098022,-0.1862119734287262
15.488883932589754,48.99514086844478,32.08657762203179,-0.5741832256317139,0.7408198118209839,0.34856802225112915
3.4314395662948884,19.47519803775714,2.7755575615628914e-14,-0.0,0.0,-1.0
15.168233940785568,11.012607834532036,32.32657736944195,-0.5518233776092529,-0.7576220631599426,0.3485681712627411
24.562271926407856,4.935683421472914,27.431056334686097,-0.21601423621177673,-0.9363133311271667,0.27686670422554016
5.490494393646003,46.4119105417293,5.724926237525067,-0.8289132714271545,0.5540811419487,0.07679109275341034
21.52164239309677,51.43265832940548,25.864399592960932,0.3246001601219177,-0.910217821598053,-0.2571735680103302
53.91041834347479,12.272688334909594,0.6174821145678928,0.7830832600593567,-0.6201273202896118,0.04714503884315491
27.299190681081516,4.352153804266281,14.758901720008387,0.11656342446804047,0.981489896774292,-0.15195591747760773
18.72727680435636,20.388658261534967,44.92283307172366,0.6100570559501648,0.5123917460441589,-0.6043881773948669
4.798606800910974,15.626207064241498,11.752882787991219,-0.8496346473693848,-0.5075874328613281,0.1430942714214325
34.43573879407761,52.91011255945253,33.188138011876426,0.2107035368680954,0.9132930040359497,0.3485683798789978
11.591823447884618,44.656993087209706,24.557854627237038,0.7740729451179504,-0.5785090923309326,-0.2571737468242645
11.710612776102028,10.118112840956472,5.34336856141538,0.6454570293426514,0.7591383457183838,-0.08422728627920151
9.829971168564889,27.467894840627636,34.59196573790596,0.9217070937156677,0.10382834076881409,-0.3737320899963379
45.64702485708412,7.002508451646444,17.92081166640057,0.5384832620620728,-0.8240629434585571,0.1759432703256607
40.89051722950507,33.377821621611275,52.00929109236827,0.6188448667526245,0.18930299580097198,0.7623617053031921
3.6769727562591994,36.92625343681891,0.029218049003618685,0.9521421790122986,-0.3015405237674713,-0.04998544976115227
5.516604745000169,19.548067920425506,23.974196510448134,-0.9018582701683044,-0.35751083493232727,0.2425648272037506
17.073450256059427,6.195502908971189,22.147764578783914,-0.43797767162323,-0.8656429648399353,0.24256500601768494
11.619811329692139,10.768468631105716,9.373575009374779,0.7042769193649292,0.7000401616096497,-0.11805855482816696
39.4704885651346,54.890041823317056,4.488899832674845,-0.3206743001937866,-0.9434372782707214,-0.08422679454088211
37.23413047048606,5.165574908652288,13.771749215998701,-0.29272153973579407,0.9440463185310364,-0.15195609629154205
26.88317192966112,55.82465456583232,11.060002939494035,0.09046700596809387,-0.9888770580291748,-0.11805877089500427
