x,y,z,nx,ny,nz
55.81712065410254,44.34082695289024,1.207540219322853,0.857514500617981,0.5122950673103333,0.04714484512805939
10.930230696035046,31.03540908504361,37.33492221246041,0.9081234931945801,-0.050341058522462845,-0.4156651496887207
16.004594224639135,50.15854707764229,30.184898634501547,-0.5196855068206787,0.795296847820282,0.3121376633644104
2.883267358023767,30.20049010133692,21.751190151943124,-0.9698231816291809,0.024596961215138435,0.24256545305252075
25.844051932420935,38.761494621760534,50.15350939201337,0.2685476541519165,-0.5912647247314453,-0.7604526281356812
4.382555589817465,27.145899249745018,14.827560883035042,0.9821752309799194,0.110639788210392,-0.15195605158805847
30.453898920750234,53.54022886662591,23.73663080089027,0.007204259280115366,-0.9663383364677429,-0.2571735978126526
58.025521441510776,33.493963918860175,2.7755575615628914e-14,0.0,0.0,-1.0
50.878895188044424,34.23892313135413,31.030881161136143,-0.9163218140602112,-0.22214142978191376,-0.3331778347492218
14.111817623637638,14.663367402117464,30.047464285880327,0.6687135100364685,0.6646914482116699,-0.3331778645515442
32.814169421526394,36.90151344454068,51.672881841334465,-0.20471297204494476,-0.4691758155822754,-0.8590498566627502
42.209478616747575,10.578712637602758,34.85186867946085,0.5044848322868347,-0.772033154964447,0.38660043478012085
5.101266100280962,24.602314790360712,28.010220907201955,-0.9385163187980652,-0.20623274147510529,0.2768666744232178
55.53779058575274,36.52186447648463,7.65019315226616,-0.9650530815124512,-0.23395457863807678,-0.11805827915668488
15.816311431154162,8.735456640405802,16.38196747960714,0.5715628266334534,0.7991501092910767,-0.1862124651670456
24.64844066031568,0.47051191241846335,0.09655308165976795,-0.145504891872406,-0.9882336258888245,0.04714513570070267
5.581148458576784,41.79936929596724,0.7599837951215882,0.8885207772254944,-0.456105500459671,-0.04998566955327988
49.32445357177065,52.37328766511504,0.10917347906038444,0.6511561274528503,0.7574780583381653,0.04714519530534744
49.67551287442967,51.921346633173904,2.52173055132257,0.6511561870574951,0.7574779987335205,0.0471453033387661
2.730531246416523,41.42463745534673,5.497377371073406,-0.9070596694946289,0.4139394164085388,0.07679128646850586
15.790139149496481,6.762694838872445,21.490631336125467,-0.5102718472480774,-0.8342292904853821,0.20900750160217285
48.0309513358023,31.316805881507953,38.741671500833085,-0.8860533833503723,-0.062380898743867874,-0.45936694741249084
4.980020480191357,17.38699209422621,2.7755575615628914e-14,-0.0,0.0,-1.0
9.11682670091991,15.869855990732978,28.993369532340424,-0.7737259268760681,-0.551287829875946,0.3121376037597656
19.366260102931523,46.695674528561675,41.37695242153215,-0.4805392026901245,0.7353867888450623,0.477795273065567
18.311524511473785,26.0350210643653,47.947246340164725,0.7253322005271912,0.20835736393928528,-0.6561100482940674
47.85785320743438,25.039730591152523,37.96076083353241,-0.8778123259544373,0.23804962635040283,-0.41566556692123413
56.464578039033206,28.26409517579468,22.88599578423187,0.9698233604431152,-0.02459600940346718,0.24256490170955658
16.717187578148817,55.484215279415665,11.56934597233645,-0.4729640483856201,0.8693843483924866,0.14309395849704742
31.020101368697038,18.62611691657152,48.80995288462478,-0.09369024634361267,0.6996461749076843,-0.7083200812339783
19.256497523891927,14.310918921452762,43.26730412285607,-0.5027117133140564,-0.6901947259902954,0.5204923152923584
29.231732448989597,54.52016743890305,19.551169698506854,0.0072711859829723835,-0.9752081036567688,-0.22117038071155548
0.13087940027959752,27.127020537703874,0.05806740521953868,-0.997366726398468,-0.05510900169610977,0.04714427888393402
42.76607508721495,6.694211228173683,8.28312642817693,-0.4481443762779236,0.8861314058303833,-0.11805830895900726
28.888235775313102,1.608446599109782,15.33714268777649,-0.06456323713064194,-0.9822807908058167,0.1759433001279831
51.69003372374933,13.403868244746771,19.949581455392178,0.7666406035423279,-0.6071063876152039,0.20900727808475494
13.989715824889704,45.79114349693917,28.040076760017563,0.6593770980834961,-0.6917580962181091,-0.29443609714508057
57.50056169942587,35.33754072016341,15.43260579809209,0.9614610075950623,0.21127396821975708,0.17594316601753235
34.252529632137296,59.30468802738907,0.07356743845535618,0.1455049067735672,0.9882336258888245,0.04714512452483177
12.441329622471638,25.038810714763834,39.17184440294642,0.8537214398384094,0.2452383041381836,-0.4593667685985565
32.3561735168416,6.3620618146914785,24.140294793959306,-0.12826144695281982,0.9578155875205994,-0.25717368721961975
20.535513164889274,39.11228607561298,50.631342377679566,-0.5199301838874817,0.4846942722797394,0.7033804655075073
27.161359620519164,3.0819692775411442,3.907385860995252,0.11751465499401093,0.9894928336143494,-0.08422720432281494
2.751088395318994,32.724407320243934,20.420653233182637,-0.9724346995353699,0.10337699949741364,0.209007129073143
21.010211191090068,4.277138927596371,1.2465811318343039,0.3607311248779297,0.9313294291496277,-0.04998548701405525
9.778631425098931,45.25754875989505,16.45717628836161,0.7870049476623535,-0.5881734490394592,-0.18621273338794708
47.85813683247224,43.13123654428519,28.316049005078277,-0.7568915486335754,-0.5834572911262512,-0.2944363057613373
38.56441011211608,56.99057759834922,13.452622671565138,0.2993667423725128,0.9433470368385315,0.14309391379356384
15.627129877778144,3.7087647567899396,1.8152586123197643,-0.4509586691856384,-0.8912988305091858,0.047145355492830276
37.55653748954576,9.295585583724032,37.124910353210275,0.3050655126571655,-0.8703304529190063,0.3866004943847656
52.49121158194959,22.585819541160816,23.480513592726197,-0.9082427024841309,0.33008643984794617,-0.25717344880104065
33.97591937025213,36.283593847929744,51.6756070902194,-0.28009024262428284,-0.42846548557281494,-0.859049916267395
44.80311234272695,45.98579660829884,36.94449923149472,0.6011953949928284,0.6993597149848938,0.3866006135940552
8.158324730940915,29.417570262444983,30.51634002700733,0.9424840211868286,0.026772767305374146,-0.33317726850509644
25.202776792607324,2.6248880256404723,18.754694654844673,-0.1424492746591568,-0.967483401298523,0.2090073823928833
11.856529410212513,52.82618830019207,2.7755575615628914e-14,0.0,0.0,-1.0
28.12821187173733,5.03937339821661,18.893198245948543,0.03382439911365509,0.9819271564483643,-0.18621210753917694
28.613629318749453,7.674610181721904,29.005283784935596,0.03289991244673729,0.9551047682762146,-0.2944357991218567
46.85311849546809,54.303077109313406,0.08334876440051042,0.588092565536499,0.8074184060096741,0.047144729644060135
53.25010749878653,18.815969941070577,12.93853255853127,-0.8974320292472839,0.41415590047836304,-0.15195591747760773
36.30981985881607,42.21445556745935,49.77589347192551,0.32090452313423157,0.6342518925666809,0.7033810019493103
32.83994679554365,7.587024388942982,35.944954437257586,0.08791784197092056,-0.9180472493171692,0.38660022616386414
14.033458061793048,53.54487143509744,2.7755575615628914e-14,0.0,0.0,-1.0
8.615203225242952,27.733157355677438,31.53054576656576,0.9369382262229919,0.10554386675357819,-0.33317744731903076
24.10298349752533,56.14651708291338,3.3230600357408075,0.17389662563800812,-0.9834944605827332,-0.04998553544282913
45.203935281558216,13.720903746432105,36.343324560017635,0.6217943429946899,-0.6811107397079468,0.3866004943847656
23.182641733260024,23.20084218793023,50.48582267821134,0.4147474467754364,0.4122525453567505,-0.811191976070404
54.990416719588346,23.512198588913506,12.569915207241056,-0.9539327025413513,0.25869256258010864,-0.15195585787296295
54.87824352225122,29.2843278968548,28.744855994355063,0.9497315883636475,-0.024086395278573036,0.3121374249458313
57.10131393290488,20.08743084957342,10.45911766584755,0.9344812631607056,-0.3385419547557831,0.11015506088733673
38.99295808171597,49.16794848437582,31.332488838615625,-0.37706518173217773,-0.8641843199729919,-0.3331776261329651
23.485132937743234,28.557111768101297,52.355608217941715,0.4228135645389557,0.08392737805843353,-0.9023219347000122
52.92371916011553,21.47531550276404,20.14667448549087,-0.9165794253349304,0.3331151008605957,-0.22117066383361816
37.78344506844161,55.470516397295434,4.409967066205331,-0.3206743001937866,-0.9434372782707214,-0.08422679454088211
54.27291067863351,20.02192944881872,9.644723202854093,-0.9332818984985352,0.33918580412864685,-0.11805886030197144
23.41546053807886,53.94014978631816,18.299406545399055,0.2514277398586273,-0.9497941732406616,-0.1862126588821411
16.17583495641404,50.62573198544942,18.68342870248023,0.5497984290122986,-0.8142768144607544,-0.18621231615543365
43.58698868161738,27.11070717772276,49.7281154439516,0.6984921097755432,-0.13177378475666046,0.7033807039260864
9.771187478491422,48.00447659109987,21.210937563801938,-0.7153026461601257,0.6668268442153931,0.2090073525905609
45.014743987180445,52.80710010856655,19.068702508531413,0.5102718472480774,0.8342292904853821,0.20900750160217285
12.279139879675695,41.034130882046185,32.90031833356044,0.7868285179138184,-0.4911467134952545,-0.37373217940330505
9.402145368296557,48.15938661988519,19.45370146354427,-0.7153029441833496,0.666826605796814,0.2090071439743042
7.382300528593709,20.429481596402645,21.175381021736985,0.9115106463432312,0.3467448651790619,-0.22117042541503906
16.663488704477317,48.03701954521375,35.88104703081867,-0.564971923828125,0.7289353609085083,0.3866004943847656
50.338161030329026,37.390448215704126,30.036708440230747,-0.8945199251174927,-0.2980382442474365,-0.3331775963306427
57.28242082311032,20.12275942778205,9.031304384750918,0.9344812631607056,-0.3385419547557831,0.11015506088733673
52.134166554618055,18.84481598145569,18.795007948724287,-0.8920949697494507,0.4116935729980469,-0.18621200323104858
6.210693252843062,38.7944634385572,28.061222098874563,-0.9034486413002014,0.3272998631000519,0.2768670320510864
7.490672398678252,24.53717193998161,26.543878710973402,0.9373825788497925,0.18606823682785034,-0.29443588852882385
9.008190981073911,14.173410705943946,25.342714956442393,-0.7825797200202942,-0.5575964450836182,0.27686673402786255
34.5242036989984,9.849920887257346,33.64131842639866,-0.19960425794124603,0.9058049321174622,-0.37373197078704834
2.953188480138641,42.15738246762519,4.17758350742443,-0.9070596694946289,0.4139394164085388,0.07679128646850586
26.675248193384434,14.14739295239702,42.810023269199405,0.1670149713754654,0.8155966401100159,-0.5539928674697876
0.7556373485932322,36.112522597071944,1.5030997895734637,-0.9815731048583984,0.18517965078353882,0.04714573174715042
17.87747597648193,8.513095626157298,20.700494775227366,0.49896538257598877,0.8379243612289429,-0.22117029130458832
53.761388616609494,30.64903881498591,22.891823742164707,-0.963979184627533,-0.067866750061512,-0.25717365741729736
38.71217494637004,18.804470281965347,45.48866678727923,-0.5250552892684937,0.59919273853302,-0.6043881177902222
50.266649368762614,47.224639196962464,4.597318894932101,-0.735512912273407,-0.6722548604011536,-0.08422719687223434
14.265145554060169,12.268339738764464,24.641917373928123,0.6259720325469971,0.73622065782547,-0.2571735382080078
42.26300121942952,54.711255680618684,2.7755575615628914e-14,0.0,0.0,-1.0
39.32878747435667,1.6628774894106426,2.7755575615628914e-14,0.0,0.0,-1.0
20.115234228747447,8.534040215578706,24.87481081699913,0.42321524024009705,0.8687638640403748,-0.25717344880104065
20.046510298097047,37.939161387591206,51.05771657864413,-0.5330527424812317,0.42212724685668945,0.7332553267478943
3.7314853096058953,33.94557785272029,23.90513319182414,-0.95331871509552,0.17984870076179504,0.24256514012813568
38.89460857065883,18.97760226803128,49.607932780953014,0.4622032642364502,-0.596342146396637,0.65631103515625
21.878201034004263,15.82275774511727,47.23407855965628,-0.4134678244590759,-0.6759681701660156,0.6100093722343445
18.430602013510832,52.80172960957706,14.567793851645822,0.4087335765361786,-0.899914562702179,-0.1519559919834137
1.0582348154125152,24.60248725432561,2.7755575615628914e-14,0.0,0.0,-1.0
18.190656859991208,47.3609861246195,39.02674535571612,-0.49211862683296204,0.7531095743179321,0.43662938475608826
50.092074169622904,50.176272461020844,2.7755575615628914e-14,0.0,0.0,-1.0
11.363214214903604,38.27648098268528,40.52180533478013,-0.7991855144500732,0.36471065878868103,0.4777955710887909
13.396064553780299,5.734184761417315,8.695117541411319,-0.5851649641990662,-0.8033976554870605,0.11015534400939941
45.29977866907981,9.62245977420647,15.67551768488189,-0.5834144353866577,0.7905394434928894,-0.18621227145195007
52.97060630110886,35.945632938233324,22.891510418015617,-0.9391613006591797,-0.22767888009548187,-0.2571738660335541
53.37383272953568,22.821526315059206,20.15172399821043,-0.9412389993667603,0.2552507519721985,-0.221170112490654
14.143394941439439,46.89847152219987,25.712537293120327,0.6667555570602417,-0.6994988918304443,-0.2571735978126526
42.9361669889143,20.71220020235688,47.41211118963674,0.6587708592414856,-0.4403511583805084,0.6100096702575684
4.114566769421801,26.304626081877235,12.482868093754284,0.9821752309799194,0.110639788210392,-0.15195605158805847
16.607007786132513,20.308491249549874,42.308024635842564,0.7047602534294128,0.4976540505886078,-0.5056217908859253
13.885591934894165,25.190945649176264,46.57744253110343,-0.7577347159385681,-0.23179015517234802,0.6100093722343445
45.851161809688016,46.817686029685156,25.072997310240194,-0.6562523245811462,-0.7093621492385864,-0.2571735680103302
46.97754552986801,53.75557298644289,5.941917967324111,0.5870093703269958,0.805929958820343,0.0767911970615387
55.146879414534204,43.76075910839894,11.045678732725722,0.8496342897415161,0.5075881481170654,0.1430939882993698
47.864406129230254,23.997517550787798,37.32867303429273,-0.8548142910003662,0.31066805124282837,-0.4156656265258789
6.167436786121598,47.812006500940996,1.964753417051035,-0.783083438873291,0.6201271414756775,0.047144632786512375
29.47458445567189,0.6070204348936434,8.140156417126615,0.0148297855630517,-0.9938037395477295,0.11015518754720688
5.176262911993035,44.304688982690365,13.084326226157277,-0.8644007444381714,0.4820118248462677,0.1430942714214325
34.49101355833154,3.1256210325039584,21.00683275318891,0.17125292122364044,-0.9628024101257324,0.2090071439743042
17.78250112618859,7.6324656824490775,16.772483576597068,0.5026871562004089,0.8441745042800903,-0.18621236085891724
31.639830710330052,9.74759190159535,40.7844983240332,0.08374398201704025,-0.8744702935218811,0.4777955710887909
39.97509786750794,3.10926203676325,13.148041086946165,0.3273804783821106,-0.933994710445404,0.14309419691562653
29.780933459141224,39.15664531532053,50.53168578588813,0.004360916092991829,-0.5847634077072144,-0.8111922144889832
7.789376392369448,47.617389553913284,14.788237342696075,-0.7717255353927612,0.6111332774162292,0.1759427934885025
19.733966361650232,9.716737595806222,27.968118597800352,0.4185318350791931,0.8591499328613281,-0.29443591833114624
39.254430411944824,55.97959454907568,17.85259350525647,0.2977624237537384,0.9382864236831665,0.17594346404075623
20.123510187454634,18.802668518881756,44.771787127746684,0.5160629749298096,0.6069546341896057,-0.6043881773948669
58.23544882730029,25.165444280780036,2.7755575615628914e-14,-0.0,0.0,-1.0
43.38955525815305,12.063589130244598,28.480217151830058,-0.5674776434898376,0.768945038318634,-0.29443612694740295
44.11727865608864,14.322321483286922,38.93703335946843,0.606553316116333,-0.6644153594970703,0.4366295337677002
22.014885720275025,55.654904814586565,21.693444788136645,-0.24817153811454773,0.945900022983551,0.20900718867778778
30.20845978152147,7.676466267056409,29.131808776704176,-0.04713647440075874,0.9545081257820129,-0.2944357991218567
51.99374896530825,48.806432886678074,8.503197084011527,0.7604265809059143,0.6400135159492493,0.11015506833791733
33.171234172232595,3.0103908050438193,1.009173822335435,-0.1325598657131195,0.989913821220398,-0.04998557269573212
27.875680970807892,1.631199508833331,15.092609063133722,-0.06456323713064194,-0.9822807908058167,0.1759433001279831
42.055461248878444,9.291260338196924,23.001524739584024,-0.506751537322998,0.8228393793106079,-0.2571735084056854
9.372657231771935,25.131582467093935,39.133798182133084,-0.8786771893501282,-0.19308337569236755,0.43662941455841064
50.06239111797046,34.11833725645489,33.2714471711104,-0.9014262557029724,-0.2185295671224594,-0.37373197078704834
4.554091304540456,29.063512630944718,27.992527289216625,-0.9594449400901794,-0.05301313102245331,0.2768664062023163
12.42669454755904,48.820360098259385,13.757086316564006,0.6819503307342529,-0.7154391407966614,-0.15195593237876892
45.66878628974874,5.816892711119202,11.811270102514504,0.5413875579833984,-0.8285068869590759,0.1430940181016922
10.026078079639094,32.122567885568536,41.204029625098556,-0.8735486268997192,0.09286525845527649,0.4777958393096924
34.04353703088589,19.26342179082516,48.69781494224484,-0.26474153995513916,0.6543657183647156,-0.708320140838623
10.427784293910518,48.58910474351326,2.2324456283072522,0.6891002058982849,-0.7229400873184204,-0.04998546466231346
39.40636544413566,7.27473365083699,30.4240412203457,0.38538211584091187,-0.8683609962463379,0.31213751435279846
20.99820962556138,32.959205281941195,53.67546602293157,-0.49456822872161865,0.17917165160179138,0.8504703044891357
16.906853332818923,45.8886757951086,33.41854848333139,0.5815402865409851,-0.722589373588562,-0.373731791973114
5.970549551258322,21.337531259195053,16.33076648952514,0.9183096289634705,0.3493312895298004,-0.18621234595775604
56.86820337327616,19.46724482986863,10.530643035977285,0.9344812631607056,-0.3385419547557831,0.11015506088733673
54.8902973026138,18.39691259861994,18.967613936726046,0.8896533846855164,-0.40599602460861206,0.20900742709636688
48.05948248179469,47.12625288113565,17.37484215010187,-0.7252251505851746,-0.6628525257110596,-0.18621228635311127
54.390495453063856,12.94828522955639,0.14316802618808744,0.830443263053894,-0.5551047325134277,0.04714545980095863
38.37963186114453,4.69298091610707,23.342122151626203,0.3209056258201599,-0.9155226945877075,0.24256491661071777
40.9004284117032,54.47820493600864,21.502096788903025,0.3698430061340332,0.9052801728248596,0.20900700986385345
18.768576550728135,5.667982139489068,7.573271832007222,0.4363894462585449,0.8958069086074829,-0.08422719687223434
19.71270286854512,5.935081315885798,25.677554743575435,-0.3634122312068939,-0.8895370960235596,0.2768670320510864
29.470865727183856,8.96505964018939,39.40570255392726,0.013423127122223377,-0.8995413184165955,0.43662935495376587
19.25341314797838,52.85629379463793,27.798916256713433,-0.38979199528694153,0.878297746181488,0.27686694264411926
17.110837265159937,9.872169411633388,32.81133727991356,-0.489070862531662,-0.7995685935020447,0.3485681414604187
51.91711723287227,18.48569898931552,29.468758377149033,0.8297519087791443,-0.4626898169517517,0.3121376633644104
22.719610568082736,50.81062642486034,29.121560714169156,0.321007639169693,-0.9001453518867493,-0.2944358289241791
48.256496859673035,6.494656791495297,1.5780674087762434,0.6119215488433838,-0.7895120978355408,0.047145161777734756
3.9101693347959525,22.174979778056827,1.0004360700122437,0.9599295258522034,0.275747686624527,-0.04998546466231346
13.304854368722994,32.587454782617016,46.372145112549696,-0.8110388517379761,0.15300609171390533,0.5646283030509949
4.649517292081054,32.745901576187705,16.219021315284234,0.9730124473571777,-0.13627822697162628,-0.1862121969461441
45.32268980381214,54.11786356908071,2.7755575615628914e-14,0.0,0.0,-1.0
33.84829880912532,56.45045056119263,3.152113658845282,-0.15921470522880554,-0.9859777688980103,-0.04998539760708809
56.197140242041705,32.86152210231661,7.991792938668106,-0.9812453389167786,-0.1523808240890503,-0.11805807799100876
41.99990107811014,2.8341943993882066,3.6232311794778913,0.404451459646225,-0.9113298654556274,0.07679124176502228
25.63503070438876,38.433725525552134,53.554809176354965,-0.21338088810443878,0.48080024123191833,0.8504703044891357
45.097126057029556,15.02322390975634,31.670515215271468,-0.6785501837730408,0.6546466946601868,-0.33317771553993225
8.1210394838404,22.709465874057006,34.95725064436988,-0.8819084763526917,-0.26977330446243286,0.3866002857685089
22.657622169028542,49.90308753290673,38.464666267838595,-0.29758742451667786,0.848997175693512,0.4366297423839569
16.42928986387333,25.920008975349884,45.73327162038258,0.765723466873169,0.2199605107307434,-0.6043880581855774
40.71253789752221,50.04319079905808,34.70881934490813,0.41635841131210327,0.822912871837616,0.38660070300102234
32.26200323643711,39.41208862103254,50.06408997645068,-0.15680332481861115,-0.6301782131195068,-0.7604525685310364
40.18823977024981,40.261071156561165,48.95550831796926,0.5362818837165833,0.5307141542434692,0.6563110947608948
8.658838571841681,16.365771713324186,17.626793281591954,0.8471920490264893,0.4975847005844116,-0.18621253967285156
30.23594380943077,0.669893711336323,8.604890857070153,0.0148297855630517,-0.9938037395477295,0.11015518754720688
45.43001934866503,51.02483466078454,9.790665443762343,-0.6109853982925415,-0.7827892899513245,-0.11805837601423264
31.34812699304823,50.54599384582097,33.02724610799928,-0.0707210972905159,-0.9248366951942444,-0.37373197078704834
47.11345507149631,43.64969252475594,29.202992920151083,-0.7568921446800232,-0.5834567546844482,-0.29443585872650146
11.03479508191615,38.408739658592886,39.81223020424614,-0.8184451460838318,0.37349987030029297,0.4366295337677002
46.73477980433984,40.81616100448447,34.543233859469,-0.7794181704521179,-0.5028235912322998,-0.3737321197986603
27.768553900544255,5.857275222510516,22.38752552943183,0.11501272767782211,0.9684295654296875,-0.22117017209529877
51.504726196562025,13.962264999745432,4.250952300390641,-0.8224480748176575,0.5625699162483215,-0.08422724157571793
11.499084331179304,47.26105038300713,16.54601692883949,0.7350273728370667,-0.6519660353660583,-0.1862121820449829
52.196406479915886,38.59398129433315,22.568878786400163,-0.8961913585662842,-0.38460999727249146,-0.22117003798484802
30.667721036308677,55.47966552551157,14.485447725272687,0.007369800005108118,-0.9883596897125244,-0.15195661783218384
29.326415590598923,49.266393477338575,42.11501462024047,-0.013107042759656906,0.8783735036849976,0.47779518365859985
16.556158561408377,23.1403863842931,48.76389023748325,-0.6767433285713196,-0.3335777521133423,0.6563112139701843
7.85275818764481,15.18035514507247,8.956250903101358,0.8111592531204224,0.5727851390838623,-0.11805852502584457
30.079232457377625,35.57216891992181,55.51112239534754,0.024918530136346817,0.3791247308254242,0.9250100255012512
15.409429340406566,54.12287411096501,15.299517969169898,-0.4704270660877228,0.8647209405899048,0.1759432703256607
47.881452740106745,51.286869058021736,16.38052895560529,0.6417115330696106,0.7464920878410339,0.17594285309314728
49.14500180140761,8.159710384304292,9.842145969343044,0.6701136827468872,-0.7340391278266907,0.1101551428437233
45.969539480935225,23.955036707911983,40.80672746293152,-0.810864269733429,0.2946954071521759,-0.505622148513794
36.18531844090772,36.358109847466594,50.68981560663846,-0.39712005853652954,-0.4292588233947754,-0.8111920356750488
50.4592823232817,46.70850934296062,6.694443033152596,-0.7891861200332642,-0.6083511114120483,-0.08422716706991196
10.432189603374344,29.818246646669827,36.343945965364625,0.9091509580612183,0.02582554519176483,-0.4156651496887207
8.049598243360178,22.006976735759604,34.24154237615987,-0.8713187575340271,-0.3454042077064514,0.3485679030418396
28.073113439685912,39.252928984019256,53.5430956280394,-0.09211759269237518,0.5178946256637573,0.8504701852798462
6.545642474747044,20.195424643171908,17.024276153883363,0.9183098673820496,0.3493308126926422,-0.18621204793453217
9.17792029041858,43.47075210966816,29.66647025367655,-0.7898300886154175,0.527957022190094,0.31213751435279846
23.276405286983177,12.402279979682051,43.52605436814602,-0.32292941212654114,-0.7904456853866577,0.5204922556877136
15.630056633721585,44.30238373861492,34.26117092777221,0.6399655342102051,-0.6713929772377014,-0.37373194098472595
54.232391668621105,27.60436544027737,20.391860297801855,-0.9706257581710815,0.09470628947019577,-0.22117044031620026
0.6722225173635759,24.9844370409267,4.4766200761659105,-0.9878742694854736,-0.13493523001670837,0.0767914280295372
43.68320698235756,28.54482967238717,45.79787283871831,-0.7929244041442871,0.07736701518297195,-0.6043882966041565
36.687779093269924,28.20161233372515,54.97383081790146,0.4397578835487366,-0.12029564380645752,0.8900235891342163
34.90329689161085,9.717142732723962,33.1170393279587,-0.19960443675518036,0.9058048129081726,-0.3737320899963379
9.154940742036295,49.62471487220323,12.817841822235838,-0.7239307761192322,0.6748692393302917,0.14309373497962952
5.8666953334831895,21.26031059154425,15.673742578041294,0.9183096289634705,0.3493312895298004,-0.18621234595775604
40.481233379204184,5.625773299008311,8.716340974970961,-0.37242329120635986,0.9205232858657837,-0.11805854737758636
44.377508481639005,9.140546895684677,16.519152577284814,-0.5834144353866577,0.7905394434928894,-0.18621227145195007
54.768537418754825,20.75200037632169,7.824190715576383,-0.9332818984985352,0.33918580412864685,-0.11805886030197144
27.457967298255383,28.741972398906253,53.70656946797824,0.13775187730789185,0.0660797581076622,-0.98826003074646
51.553369848636315,33.28073992596374,29.61434272349271,-0.9316966533660889,-0.14468631148338318,-0.3331775367259979
28.003611823066027,48.11694603064797,38.5153814577302,0.08092276751995087,-0.8845528960227966,-0.45936664938926697
13.964180932327778,50.571892978739754,25.090732664761486,-0.5943077802658081,0.7667858004570007,0.2425650656223297
3.5896327582416983,23.940905502381938,3.803477808639582,0.977377712726593,0.19400683045387268,-0.08422710746526718
25.180178877977532,53.381658575046494,22.60355235127928,0.16980236768722534,-0.9603390097618103,-0.22117000818252563
6.964917757222902,37.76855256509078,21.744468373673627,0.9297247529029846,-0.2944411635398865,-0.22117027640342712
21.359886024767018,40.39967791223667,50.2121901528489,-0.4354464113712311,0.5618200302124023,0.7033808827400208
35.7307139774322,49.741487520281446,33.0780164801078,-0.2984974682331085,-0.8781934380531311,-0.37373194098472595
1.3729759116260258,36.95977523951824,7.101755702921041,-0.9586923122406006,0.26224958896636963,0.11015530675649643
27.417829129387155,36.84800477603293,54.780958736400805,-0.15080948173999786,0.4302494525909424,0.8900235295295715
46.819417318121026,50.37112098111758,6.659891464678504,-0.6131016612052917,-0.7855011820793152,-0.0842273011803627
42.733924507510274,21.571664897706082,48.244347142802106,0.6272591352462769,-0.4192873239517212,0.65631103515625
29.545080069058006,56.89302336030351,0.27578597310410213,0.007447035517543554,-0.9987221360206604,-0.04998583346605301
40.96360003536625,35.59228870424666,51.21692661212567,0.609886109828949,0.3006235957145691,0.7332560420036316
38.48118695883729,40.84094981878328,45.679397338249466,-0.4901939630508423,-0.6280325055122375,-0.6043881773948669
46.95941052194031,22.45799750261219,37.984469866041664,-0.8258202075958252,0.38110774755477905,-0.41566553711891174
4.098864356913538,23.62434467337035,8.586625644788338,0.9740036129951477,0.19333699345588684,-0.11805850267410278
10.027547435745667,43.168672117217255,32.24031375659613,-0.7792273163795471,0.5208693146705627,0.3485683500766754
37.66783095665214,15.342632562869836,46.75055165006377,0.3786712884902954,-0.6960576772689819,0.6100096106529236
53.98676558880895,22.570311318690223,28.219098955467835,0.9268558621406555,-0.25354090332984924,0.2768667936325073
9.361309107883285,27.70391179733537,40.00117305902284,-0.8913647532463074,-0.12175270169973373,0.4366293251514435
6.237625236378975,17.123440036553056,22.422867195227095,-0.8701664209365845,-0.4289206564426422,0.24256443977355957
55.360895440112586,31.09561957076557,15.045119853595345,-0.985946774482727,-0.06941365450620651,-0.15195637941360474
54.086186205211916,34.05967282371641,30.110632157231628,0.9412964582443237,0.12857338786125183,0.3121376037597656
26.96553058871762,3.696575635296238,24.452296700814532,-0.14131569862365723,-0.9597875475883484,0.24256493151187897
29.85583779895815,47.662304177232635,39.57068627004406,0.0066224029287695885,-0.8882219195365906,-0.45936688780784607
32.50454332648277,59.09429269942732,6.694767568858959,0.06539096683263779,0.9949005842208862,0.07679077982902527
30.980588904202882,4.846338765491389,17.96774532591032,-0.048460282385349274,0.9813137054443359,-0.18621231615543365
19.688615488296985,52.22889744255866,30.16461590271375,-0.3853820860385895,0.8683611154556274,0.3121372163295746
44.186309293423406,7.077238808241107,3.4979233434260495,-0.5237335562705994,0.8504143953323364,-0.049985308200120926
5.907474007168549,24.726055754758143,20.57976462946502,0.9565722346305847,0.18987701833248138,-0.22117029130458832
11.848523660174841,10.341027416837267,8.178431830486213,0.6432290077209473,0.7565174102783203,-0.11805856227874756
41.513368264928005,14.852223830264263,37.22414292349192,-0.5400716066360474,0.7318093180656433,-0.41566550731658936
7.581042422238248,31.35733040236464,36.28578554613099,-0.9170795679092407,0.09749282151460648,0.38660088181495667
57.861118174415445,22.50795022169311,10.363608197393093,0.9586922526359558,-0.2622497081756592,0.1101553812623024
48.49996669148584,45.935896355191844,19.760719675624863,-0.7198556661605835,-0.6579448580741882,-0.22117051482200623
19.204983983924706,54.248162607741364,6.8824012399270025,0.4120672941207886,-0.9072520732879639,-0.08422723412513733
25.85186051031614,8.770915530632294,31.210973530940965,0.1891510784626007,0.9236961007118225,-0.33317774534225464
51.5254119982154,29.411573634035527,30.453022901145598,-0.9427781701087952,0.012717939913272858,-0.33317792415618896
24.861559314468284,18.37651118711035,51.26277096013217,-0.25715601444244385,-0.629449725151062,0.7332556247711182
22.483846014603717,40.96636338440326,50.416473705478964,-0.38882744312286377,0.5950369834899902,0.7033805847167969
15.440176353092964,16.70396480931037,42.07386084926034,-0.6721027493476868,-0.5656760334968567,0.4777955114841461
26.281832736171282,55.555483517653926,12.4833566262429,0.1720931977033615,-0.9732899069786072,-0.15195626020431519
51.929295211715115,23.79443140420639,34.803684192248674,0.8895646929740906,-0.24334068596363068,0.3866005837917328
34.9400334608888,1.0179036148100817,7.714900095179084,0.17405475676059723,-0.97855544090271,0.11015509068965912
51.0531224841673,47.195476973842965,19.55916336497598,0.7481847405433655,0.6297105550765991,0.20900754630565643
33.176688375277685,26.00950117993048,55.73101498510667,0.20118343830108643,-0.22037538886070251,0.9544422030448914
6.120707031987977,14.701049611400697,2.7755575615628914e-14,-0.0,0.0,-1.0
25.2076173777891,5.081375548022649,17.10749127584786,0.1971050500869751,0.9625354409217834,-0.1862127035856247
43.47927746229569,6.962566487084414,6.844012354326261,-0.5225257277488708,0.8484531044960022,-0.0842273011803627
9.575270343158566,41.96397531192604,24.098703293453408,0.8197669386863708,-0.511707067489624,-0.25717324018478394
22.999866166079286,31.885774503447294,51.99509913340987,0.48800376057624817,-0.15454983711242676,-0.8590498566627502
40.41655888247592,25.917526631965767,52.287475603220756,0.6084534525871277,-0.22042930126190186,0.7623616456985474
37.6007687611607,4.658876671796949,9.462964713893783,-0.29408952593803406,0.9484585523605347,-0.11805830895900726
22.97902119914145,4.507931042401287,10.441174213323798,0.2799150347709656,0.9527379870414734,-0.11805886030197144
17.425911791513148,40.61254961185811,46.81085439160688,-0.5796027779579163,0.5403234362602234,0.6100091934204102
18.35071589831699,23.287802683181912,46.68991050099749,0.6507276892662048,0.38219431042671204,-0.6561105251312256
54.176828198354194,18.04812664856646,0.6889968137089362,-0.9068412184715271,0.4184979200363159,-0.04998559504747391
17.95167677091252,27.264563709120765,47.9105503138161,0.7402230501174927,0.14693276584148407,-0.6561101675033569
27.963795871139773,8.063714768528765,37.33681817718412,-0.05977426841855049,-0.909424364566803,0.41155123710632324
12.117449796742608,9.277641518388485,20.89255510837662,-0.6374837160110474,-0.7415729761123657,0.20900730788707733
22.072524952131825,12.573197519209243,43.038694069933236,-0.32292985916137695,-0.7904453277587891,0.5204925537109375
6.749422958537383,11.080012601066798,1.549263089460305,-0.7642319798469543,-0.6432160139083862,0.047144778072834015
15.433022021067849,13.13113890919863,29.446794633455802,0.6190449595451355,0.7280733585357666,-0.29443591833114624
13.265894693629384,31.68629504041332,41.681399641964916,0.8544157147407532,-0.11966776847839355,-0.5056218504905701
36.081627058202876,54.9725962107771,25.832273242436287,0.21601493656635284,0.9363129138946533,0.27686765789985657
47.23755703899438,10.508834351140445,12.129009169044277,-0.6513928174972534,0.7433685064315796,-0.15195618569850922
4.771234651967865,43.07405604129751,14.705104457945243,-0.8597641587257385,0.4794263541698456,0.17594294250011444
40.96556421391104,45.67571053008182,42.25800689696427,0.5171977877616882,0.7100828289985657,0.4777957797050476
28.973130204852147,34.49188472668932,55.83698484750003,-0.0522550567984581,0.29378485679626465,0.9544422030448914
27.876572206845882,4.906413623139533,18.12500967515328,0.11587057262659073,0.9756530523300171,-0.18621252477169037
50.631229139263596,31.680131534962754,39.38041127452449,0.898271381855011,0.04963277280330658,0.4366293251514435
46.170272181256,22.660795474507886,39.55226294556247,-0.8065066337585449,0.3721950352191925,-0.4593668282032013
28.653825144357782,26.549770555728394,56.0,0.0,0.0,1.0
15.678109306180342,6.754270175054589,21.183495036110514,-0.5102718472480774,-0.8342292904853821,0.20900750160217285
48.89558357946649,41.100044996278065,29.187174631908025,-0.803059995174408,-0.5180753469467163,-0.29443609714508057
47.430277844231455,50.35474220442216,1.202222793264033,-0.6782445907592773,-0.7331342101097107,-0.049985434859991074
54.325710398583524,16.847615654493307,18.16289288177139,0.8540995717048645,-0.4762667119503021,0.20900708436965942
56.580750010877246,30.9917531284116,22.4528372959433,0.9686576724052429,0.053522128611803055,0.24256493151187897
5.061238852787177,20.246746812799184,23.31090819938432,-0.9018583297729492,-0.35751041769981384,0.2425650805234909
16.541787639570323,52.99396869736532,5.970110440518391,0.48653799295425415,-0.8695898652076721,-0.0842273160815239
41.37874897624685,46.80874592406849,33.625503504000115,-0.5075169801712036,-0.7763702273368835,-0.37373214960098267
33.86048913767704,0.5274961444804573,4.348175724675173,0.17460337281227112,-0.9816398620605469,0.07679091393947601
8.614703603708561,38.578568437114455,34.74358632419255,-0.839011013507843,0.3828848898410797,0.3866001069545746
20.87921468638895,51.464266698479186,33.50762253173184,-0.3802076280117035,0.8567042350769043,0.34856849908828735
22.46543587423026,44.19073657231498,42.59313890794454,0.4212595522403717,-0.7529188990592957,-0.5056219100952148
15.619455097049505,13.252943843326943,30.06382942001404,0.6107490658760071,0.7183163166046143,-0.33317750692367554
25.738254614870453,46.168362787426936,41.37706312433644,0.22078272700309753,-0.834027111530304,-0.505622148513794
18.32106022752344,56.90338987186326,6.197182144850756,-0.40445083379745483,0.9113301634788513,0.07679085433483124
35.15520828304022,10.506009608026357,41.00674501180175,0.22293433547019958,-0.8497126698493958,0.47779563069343567
21.476184608053916,6.124540806124579,17.372443071069487,0.3548657298088074,0.916185200214386,-0.18621237576007843
0.7802617738348578,24.05565446326175,3.6084043961241834,-0.9738132357597351,-0.21398796141147614,0.07679159939289093
3.686149420511164,41.81944265145565,2.7755575615628914e-14,-0.0,0.0,-1.0
58.023046721826084,32.511047738005054,14.92702215750885,0.9829010963439941,0.054308924823999405,0.17594312131404877
6.759755280738292,24.456404724022565,32.74812637431039,-0.915442168712616,-0.20116132497787476,0.34856823086738586
55.19519390376062,44.37559046261353,7.974753789855946,0.8532447814941406,0.5097442269325256,0.11015527695417404
23.0819207394932,12.60346357550786,38.27192263144684,0.3208193778991699,0.8282856345176697,-0.4593667984008789
6.43505102413295,23.801930051912585,21.939962486158926,0.9373286366462708,0.26925578713417053,-0.22117029130458832
25.30902574516512,7.116370376700988,25.780244919574432,0.1938662976026535,0.9467194676399231,-0.2571733891963959
5.352737841868469,32.81734718569359,19.71448495433864,0.9658085107803345,-0.13526925444602966,-0.22116991877555847
36.77205995325716,57.85689740944194,11.101450208746291,0.22248932719230652,0.9643767476081848,0.1430942565202713
9.043198234705121,8.57930342464932,1.7479779144432939,-0.7099962830543518,-0.7026255130767822,0.04714483395218849
2.2475448859752816,36.522388844276236,14.50969450078886,-0.9495152235031128,0.2597399950027466,0.1759432703256607
41.313015898072535,49.46717523565119,27.225060213689474,-0.45414191484451294,-0.8408700823783875,-0.29443612694740295
39.512958331611685,7.655852834106095,21.77897950913297,-0.3657582700252533,0.9040490388870239,-0.2211700826883316
48.8922500136656,51.08162056177526,13.373273002637394,0.6451721787452698,0.7505177855491638,0.14309406280517578
40.54050279248631,16.47354406754961,45.83483088092079,0.505609393119812,-0.6523452997207642,0.5646279454231262
28.719773874162694,44.49281978705454,44.75592152686713,0.07258260250091553,-0.7933768033981323,-0.6043881773948669
1.7222929876811905,19.913028512856933,0.4536878685044856,-0.9285876750946045,-0.3681063950061798,0.0471440888941288
52.74794496401257,11.12370214697268,4.045265547729713,0.7816401124000549,-0.618984580039978,0.07679096609354019
29.802649227540588,59.471144215310936,2.7755575615628914e-14,0.0,0.0,-1.0
14.911761141720683,14.850704817907165,38.821744520885424,-0.6394532918930054,-0.6328145265579224,0.43662944436073303
43.69013432711203,56.08669347872093,2.590895607742368,0.4509584903717041,0.8912988901138306,0.047145940363407135
29.30860279611374,6.551233887878465,33.8714393047209,0.01398363709449768,-0.9371790289878845,0.3485684096813202
17.650796775436675,51.50081169751685,29.344616688874293,-0.4540061950683594,0.8345349431037903,0.3121374249458313
14.422028268448432,37.22705230754591,45.877866514787925,-0.7508543133735657,0.34265533089637756,0.5646283030509949
10.162539259266692,31.717268229839352,35.57513428442078,0.9081233739852905,-0.05034029111266136,-0.41566553711891174
7.477799075760069,14.399577524207999,2.7755575615628914e-14,-0.0,0.0,-1.0
36.091083973610544,46.7787479570973,39.12569916584457,-0.28585368394851685,-0.840993344783783,-0.4593667685985565
36.09691026775682,46.19995050768177,40.181717152931576,-0.28585368394851685,-0.840993344783783,-0.4593667685985565
50.9749450888319,13.424195089000873,5.350216386608771,-0.7724892497062683,0.6294173002243042,-0.08422724157571793
48.14489406805876,45.972255650249814,30.71575929922945,0.7268567681312561,0.6117591261863708,0.31213781237602234
47.030214614271046,17.50580782096195,31.99154897057458,-0.7782223224639893,0.532318115234375,-0.33317768573760986
4.98582806549171,24.931028089995657,16.317410562470492,0.9637073278427124,0.19129343330860138,-0.1862122267484665
3.5866424552108644,24.206026812194985,4.379452716169874,0.977377712726593,0.19400683045387268,-0.08422710746526718
43.54348771413362,36.565111020972935,43.90593387121649,-0.7348874807357788,-0.3911934494972229,-0.5539928078651428
6.586143549463309,42.67626983302925,23.31380576839955,-0.847305417060852,0.4724782109260559,0.2425651103258133
1.6906778307760413,30.809143423919295,15.715057412317154,-0.9840837717056274,0.0249584149569273,0.17594364285469055
5.55855022271851,19.999100213791255,10.823771343198661,0.9281209707260132,0.3530632555484772,-0.11805842816829681
24.24151691369288,18.12972040781634,50.79670511201436,-0.32090407609939575,-0.6342524886131287,0.7033806443214417
8.540309996990521,37.718301599654154,27.366008069201353,0.883734405040741,-0.3637590706348419,-0.29443642497062683
35.28220108012964,13.997348952862463,46.37975040194105,0.27301210165023804,-0.7788835763931274,0.564628005027771
25.826118960631085,4.246551715409463,12.946840312480905,0.11656314134597778,0.981489896774292,-0.15195608139038086
46.94438360695915,22.197604613574462,37.77557997492521,-0.8258202075958252,0.38110774755477905,-0.41566553711891174
19.858725701393382,5.565216413105588,10.425228833587688,0.35865673422813416,0.9259738326072693,-0.11805865913629532
23.150551055905794,45.766033261555236,40.64240458216469,0.3567805588245392,-0.785527765750885,-0.505622148513794
50.73239220320578,46.626182857941444,22.32009158872709,0.742233395576477,0.6247016191482544,0.24256451427936554
22.946359352270605,37.02089348166516,53.289278380261464,-0.39766228199005127,0.43559712171554565,0.8075394034385681
52.61711269927886,35.20992391585422,24.83375124385623,-0.9391617178916931,-0.22767774760723114,-0.25717324018478394
17.851935369544105,2.7435491676806354,3.7032929975439854,-0.37707996368408203,-0.9229917526245117,0.07679139822721481
56.43445114367401,18.835842969698206,11.804975403035165,0.9003840088844299,-0.4108926057815552,0.14309388399124146
44.92561900901196,51.55336558759505,8.643660010016497,-0.5433402061462402,-0.8311700224876404,-0.11805838346481323
49.19331832680223,52.41560188846474,1.2405307776427295,0.6511561274528503,0.7574780583381653,0.04714519530534744
14.290256961659072,54.06220981598071,2.7755575615628914e-14,0.0,0.0,-1.0
50.02607453721257,45.41304403847564,15.347223426901339,-0.7781479954719543,-0.5998421907424927,-0.18621230125427246
44.2886832828443,7.353325887901362,5.758925076066094,-0.5225257277488708,0.8484531044960022,-0.0842273011803627
15.253368389440478,27.686857222834504,44.721282309148584,0.8272886276245117,0.09319328516721725,-0.5539932250976562
42.622701277783406,16.864212028313695,38.839285626134526,-0.6392435431480408,0.6167251467704773,-0.45936673879623413
11.440922465252074,42.01569844640419,29.436599149063763,0.8106947541236877,-0.5060449242591858,-0.2944360077381134
44.934680076944716,42.247036979838725,41.91299140607233,0.6721029877662659,0.565675675868988,0.4777955710887909
28.563949129906792,57.94781889419483,15.846684981635102,-0.014687267132103443,0.9842908382415771,0.17594259977340698
32.9458223794204,54.791383965092926,17.299051014146986,-0.15662425756454468,-0.9699451923370361,-0.18621258437633514
11.807287284419678,14.76390873814837,24.53321097521713,0.7399839758872986,0.621518611907959,-0.2571738362312317
52.617961678637386,39.81871743729247,29.320650191486575,0.8831747174263,0.3501032590866089,0.31213805079460144
28.003908508805345,3.544255421012156,9.54609077647793,0.03418496251106262,0.9924179911613464,-0.11805875599384308
28.424583274567265,5.245546736556022,19.87573609220183,0.03357397019863129,0.9746571183204651,-0.22117017209529877
38.80881629042504,51.74807389704487,23.83217574703536,-0.3864634335041046,-0.8857244849205017,-0.2571733891963959
26.27849371283603,50.41413192970026,39.34616986986621,-0.1575460135936737,0.8857393860816956,0.43662917613983154
38.64449669217588,22.10206866531685,51.92126329173992,0.47336357831954956,-0.4412839114665985,0.7623617649078369
2.865130236177936,38.8864500528568,14.082956498970486,-0.9305275678634644,0.33710917830467224,0.1430937945842743
3.849173184385796,39.19642669435548,18.623311320480123,-0.9194377064704895,0.3330920338630676,0.2090071737766266
38.077561452874086,5.166653600290121,25.483348581002176,0.31785351037979126,-0.906815230846405,0.27686694264411926
18.50427559156505,2.542196729530542,4.486422411119678,-0.3770795464515686,-0.922991931438446,0.07679111510515213
13.548031450873223,52.18011557525037,18.52356597155821,-0.599073588848114,0.7729339003562927,0.20900730788707733
41.139947001941295,5.848818911708769,23.513280581984347,0.39353466033935547,-0.8867315649986267,0.24256467819213867
9.156656486125515,42.08890674900333,31.835267182807257,-0.8186134099960327,0.4564782679080963,0.34856799244880676
30.991492309635586,43.02359431921498,46.65572632521327,-0.05754130333662033,-0.7524679899215698,-0.6561104655265808
51.823119271758785,26.61067820109496,36.47032819989141,0.9170798659324646,-0.09749191254377365,0.3866003751754761
44.22164895286404,9.932278685450274,20.15523145616612,-0.579095184803009,0.7846862077713013,-0.22117023169994354
0.4658636080258536,33.48374813246657,3.953272427097664,-0.9914604425430298,0.1054002046585083,0.07679161429405212
36.062403045402235,29.067073425022933,52.44941504469698,-0.4290255010128021,0.04186118766665459,-0.9023218750953674
53.14110381738294,17.49988561302899,24.087454469363422,0.847305178642273,-0.4724786579608917,0.24256515502929688
31.022963133674786,16.718024009623473,46.75559025473522,-0.03722234442830086,0.7537462711334229,-0.6561105251312256
4.021638580436575,24.190852834462582,8.877234106180007,0.9740036129951477,0.19333699345588684,-0.11805850267410278
44.05926812108281,7.145555605405264,5.089212208576897,-0.5225257277488708,0.8484531044960022,-0.08422728627920151
22.462660352628983,45.47311358309269,40.61208757011374,0.3567805588245392,-0.785527765750885,-0.505622148513794
28.533551078133733,56.69558825700552,3.9515506444793354,0.007428301498293877,-0.9964188933372498,-0.08422710001468658
4.903603724152488,38.588442533525495,8.922900147240844,0.9466668367385864,-0.2998068332672119,-0.11805818974971771
31.998298799427257,6.786663515646709,34.20322453179088,0.08935124427080154,-0.9330149292945862,0.34856778383255005
12.079482699204195,43.08635634095712,29.104956289753765,0.7655068635940552,-0.5721070170402527,-0.29443633556365967
47.50473299584748,21.138853554722957,41.66173469230561,0.7991854548454285,-0.3647106885910034,0.47779566049575806
37.119413058023646,55.42274186917639,7.254075941325468,-0.24060462415218353,-0.9669618606567383,-0.08422679454088211
54.60520858821267,19.79864332368437,5.874614866947525,-0.9365147948265076,0.3403612971305847,-0.08422708511352539
14.470625694209188,20.50301692362239,44.58044168460391,-0.7330176830291748,-0.43791890144348145,0.5204921960830688
35.01572035344949,41.86083642781328,46.82050512644158,-0.3018017113208771,-0.6916894912719727,-0.6561108231544495
54.04918663924214,41.75083031901386,1.9622649751600485,-0.8816216588020325,-0.46930232644081116,-0.04998529329895973
20.802565041691466,39.159918624080824,46.95556041464374,0.5206900238990784,-0.5462610721588135,-0.6561102867126465
33.24146052751107,58.96456321293186,7.200416864214976,0.14478054642677307,0.9833129048347473,0.11015567928552628
52.624485299922846,14.440766912923031,2.7755575615628914e-14,-0.0,0.0,-1.0
20.027119795134865,30.26670768940027,50.12520322461669,0.6483981013298035,-0.03594302386045456,-0.7604524493217468
10.064683620483473,41.97998838185771,25.626895868175847,0.8197669386863708,-0.511707067489624,-0.25717324018478394
19.541898650892264,24.607352435205307,52.07285142537884,-0.5804645419120789,-0.28612127900123596,0.7623617649078369
12.902293241097976,52.96430687841721,12.58138498258721,-0.6062988042831421,0.7822569012641907,0.14309415221214294
58.36830941596169,29.105184682416457,13.331199282639933,0.9893909692764282,-0.02509221062064171,0.1430940330028534
6.108190183192696,26.173708038384085,31.908126232241692,-0.9286604523658752,-0.12684744596481323,0.3485678434371948
25.375640026961875,56.91734337571007,19.4197559713292,-0.17125211656093597,0.962802529335022,0.2090071588754654
14.13176701695535,9.334407327515173,26.15348855204596,-0.5657324194908142,-0.7767184972763062,0.2768667936325073
53.145025518077375,32.399544980201384,33.39355881159047,0.9286603331565857,0.12684650719165802,0.3485683798789978
21.036549005153578,8.405366017749719,34.164780597854296,-0.35447755455970764,-0.8676669001579285,0.3485682010650635
